# .PCD v0.7 - Point Cloud Data file format
VERSION 0.7
FIELDS x y z rgb
SIZE 4 4 4 4
TYPE F F F F
COUNT 1 1 1 1
WIDTH 972
HEIGHT 1
VIEWPOINT 0 0 0 1 0 0 0
POINTS 972
DATA ascii
-0.32989526 0.0084228581 0.73700005 4.6184471e-39
-0.32804573 0.0084114289 0.73600006 4.9890261e-39
-0.32664382 0.0084114289 0.73600006 5.4489281e-39
-0.32435811 0.0083885714 0.73400003 5.6333249e-39
-0.32295999 0.0083885714 0.73400003 5.9084741e-39
-0.32068574 0.0083657149 0.73200005 6.0921465e-39
-0.31929144 0.0083657149 0.73200005 6.367653e-39
-0.31876573 0.0083885714 0.73400003 6.4598486e-39
-0.31736764 0.0083885714 0.73400003 6.5513268e-39
-0.31596953 0.0083885714 0.73400003 6.4598514e-39
-0.31457144 0.0083885714 0.73400003 6.3680145e-39
-0.31317332 0.0083885714 0.73400003 6.2758189e-39
-0.31092572 0.0083657149 0.73200005 6.1847022e-39
-0.30953145 0.0083657149 0.73200005 6.3680145e-39
-0.30813718 0.0083657149 0.73200005 6.5516883e-39
-0.30632383 0.0083542857 0.73100001 6.5516897e-39
-0.3053486 0.0083657149 0.73200005 6.5516883e-39
-0.30353904 0.0083542857 0.73100001 6.5520456e-39
-0.30214667 0.0083542857 0.73100001 6.5524058e-39
-0.30075428 0.0083542857 0.73100001 6.553482e-39
-0.29936191 0.0083542857 0.73100001 6.5531246e-39
-0.29837716 0.0083657149 0.73200005 6.5527659e-39
-0.29698288 0.0083657149 0.73200005 6.6449601e-39
-0.29558858 0.0083657149 0.73200005 6.6453189e-39
-0.29419431 0.0083657149 0.73200005 6.6449643e-39
-0.29280004 0.0083657149 0.73200005 6.6449685e-39
-0.29140574 0.0083657149 0.73200005 6.6449657e-39
-0.29080382 0.0083885714 0.73400003 6.8282766e-39
-0.2894057 0.0083885714 0.73400003 7.0123049e-39
-0.28800765 0.0083885714 0.73400003 7.0123049e-39
-0.28660953 0.0083885714 0.73400003 7.0123063e-39
-0.28521144 0.0083885714 0.73400003 7.197415e-39
-0.2845867 0.0084114289 0.73600006 7.3800098e-39
-0.28241524 0.0083885714 0.73400003 7.2885331e-39
-0.28101715 0.0083885714 0.73400003 7.1966948e-39
-0.27885717 0.0083657149 0.73200005 7.196692e-39
-0.27708378 0.0083542857 0.73100001 7.1966934e-39
-0.27569145 0.0083542857 0.73100001 7.1048593e-39
-0.27429906 0.0083542857 0.73100001 7.012665e-39
-0.27328002 0.0083657149 0.73200005 7.1045005e-39
-0.27151427 0.0083542857 0.73100001 7.1970549e-39
-0.27049145 0.0083657149 0.73200005 7.197415e-39
-0.26909718 0.0083657149 0.73200005 7.1977738e-39
-0.26770288 0.0083657149 0.73200005 7.3818049e-39
-0.26630861 0.0083657149 0.73200005 7.5654801e-39
-0.2649143 0.0083657149 0.73200005 7.8413495e-39
-0.26352 0.0083657149 0.73200005 8.1175721e-39
-0.2617676 0.0083542857 0.73100001 8.0264526e-39
-0.26073143 0.0083657149 0.73200005 8.0282547e-39
-0.25933716 0.0083657149 0.73200005 9.1353127e-39
-0.25794289 0.0083657149 0.73200005 1.0239492e-38
-0.25654858 0.0083657149 0.73200005 1.1711374e-38
-0.25515431 0.0083657149 0.73200005 1.3276918e-38
-0.25341335 0.0083542857 0.73100001 1.5210162e-38
-0.25236571 0.0083657149 0.73200005 1.7239884e-38
-0.25062856 0.0083542857 0.73100001 1.9361442e-38
-0.24923618 0.0083542857 0.73100001 2.1479059e-38
-0.2478438 0.0083542857 0.73100001 2.2035832e-38
-0.24645144 0.0083542857 0.73100001 2.2588999e-38
-0.24505906 0.0083542857 0.73100001 2.2040141e-38
-0.24366666 0.0083542857 0.73100001 2.1562985e-38
-0.24227428 0.0083542857 0.73100001 1.5034373e-38
-0.24088189 0.0083542857 0.73100001 8.4928258e-39
-0.23948953 0.0083542857 0.73100001 4.2475248e-39
-0.23842287 0.0083657149 0.73200005 1.0307251e-40
-0.23702858 0.0083657149 0.73200005 8.3128248e-40
-0.2356343 0.0083657149 0.73200005 1.567016e-39
-0.23488 0.0083885714 0.73400003 2.5786148e-39
-0.23348191 0.0083885714 0.73400003 3.6910622e-39
-0.2327162 0.0084114289 0.73600006 8.7524373e-39
-0.23005715 0.0083657149 0.73200005 1.3821755e-38
-0.22866288 0.0083657149 0.73200005 1.5676832e-38
-0.22726859 0.0083657149 0.73200005 1.7605754e-38
-0.22556572 0.0083542857 0.73100001 1.7146955e-38
-0.22356001 0.0083314283 0.72900003 1.6687416e-38
-0.22217144 0.0083314283 0.72900003 1.6687054e-38
-0.22138858 0.0083542857 0.73100001 1.6778889e-38
-0.21999618 0.0083542857 0.73100001 1.6778889e-38
-0.2186038 0.0083542857 0.73100001 1.677853e-38
-0.21721143 0.0083542857 0.73100001 1.677853e-38
-0.21581905 0.0083542857 0.73100001 1.6870367e-38
-0.21442667 0.0083542857 0.73100001 1.6870727e-38
-0.21303429 0.0083542857 0.73100001 1.6870727e-38
-0.21164191 0.0083542857 0.73100001 1.6871086e-38
-0.21024953 0.0083542857 0.73100001 1.696292e-38
-0.20828572 0.0083314283 0.72900003 1.6963278e-38
-0.20689714 0.0083314283 0.72900003 1.6962918e-38
-0.20550857 0.0083314283 0.72900003 1.6962918e-38
-0.20412 0.0083314283 0.72900003 1.7054755e-38
-0.20273143 0.0083314283 0.72900003 1.7054758e-38
-0.20134287 0.0083314283 0.72900003 1.7146952e-38
-0.20050286 0.0083542857 0.73100001 1.7146952e-38
-0.19911046 0.0083542857 0.73100001 1.7239146e-38
-0.19717716 0.0083314283 0.72900003 1.7239505e-38
-0.19578858 0.0083314283 0.72900003 1.7331698e-38
-0.19493334 0.0083542857 0.73100001 1.7331695e-38
-0.19301143 0.0083314283 0.72900003 1.7331339e-38
-0.19162287 0.0083314283 0.72900003 1.7423176e-38
-0.18997334 0.00832 0.72800004 1.7515372e-38
-0.18858667 0.00832 0.72800004 1.7423895e-38
-0.18720001 0.00832 0.72800004 1.7331342e-38
-0.18581335 0.00832 0.72800004 1.7147314e-38
-0.18442668 0.00832 0.72800004 1.7054759e-38
-0.18253714 0.0082971426 0.72600001 1.6962924e-38
-0.1811543 0.0082971426 0.72600001 1.6963281e-38
-0.17977144 0.0082971426 0.72600001 1.6871446e-38
-0.17838857 0.0082971426 0.72600001 1.6871443e-38
-0.17700571 0.0082971426 0.72600001 1.6962917e-38
-0.17562287 0.0082971426 0.72600001 1.7055113e-38
-0.17423999 0.0082971426 0.72600001 1.6963277e-38
-0.17285714 0.0082971426 0.72600001 1.6963277e-38
-0.17147429 0.0082971426 0.72600001 1.6963276e-38
-0.17056002 0.00832 0.72800004 1.6962918e-38
-0.16917333 0.00832 0.72800004 1.6962561e-38
-0.16778667 0.00832 0.72800004 1.7054399e-38
-0.16594286 0.0082971426 0.72600001 1.6962567e-38
-0.16456001 0.0082971426 0.72600001 1.6871086e-38
-0.16317713 0.0082971426 0.72600001 1.6871083e-38
-0.16179429 0.0082971426 0.72600001 1.6962561e-38
-0.16041143 0.0082971426 0.72600001 1.6962561e-38
-0.15902856 0.0082971426 0.72600001 1.6962562e-38
-0.15764572 0.0082971426 0.72600001 1.6870727e-38
-0.15626286 0.0082971426 0.72600001 1.6870728e-38
-0.15488 0.0082971426 0.72600001 1.6962564e-38
-0.15349714 0.0082971426 0.72600001 1.7146236e-38
-0.15211429 0.0082971426 0.72600001 1.7054761e-38
-0.15073143 0.0082971426 0.72600001 1.7054401e-38
-0.14934857 0.0082971426 0.72600001 1.7054399e-38
-0.14796571 0.0082971426 0.72600001 1.7146235e-38
-0.14658286 0.0082971426 0.72600001 1.7054401e-38
-0.1452 0.0082971426 0.72600001 1.6962923e-38
-0.14361905 0.0082857152 0.72500002 1.7054758e-38
-0.14243428 0.0082971426 0.72600001 1.7146592e-38
-0.14105143 0.0082971426 0.72600001 1.7055474e-38
-0.13966858 0.0082971426 0.72600001 1.6963278e-38
-0.13828571 0.0082971426 0.72600001 1.6963278e-38
-0.13690285 0.0082971426 0.72600001 1.696328e-38
-0.13552 0.0082971426 0.72600001 1.6963281e-38
-0.13413715 0.0082971426 0.72600001 1.6963281e-38
-0.13275428 0.0082971426 0.72600001 1.6871087e-38
-0.13137142 0.0082971426 0.72600001 1.6871086e-38
-0.12998858 0.0082971426 0.72600001 1.6871084e-38
-0.12860571 0.0082971426 0.72600001 1.6871086e-38
-0.12722285 0.0082971426 0.72600001 1.6871088e-38
-0.12584001 0.0082971426 0.72600001 1.6962923e-38
-0.12428571 0.0082857152 0.72500002 1.6871087e-38
-0.12290476 0.0082857152 0.72500002 1.677925e-38
-0.12169143 0.0082971426 0.72600001 1.6779609e-38
-0.12030858 0.0082971426 0.72600001 1.6871446e-38
-0.11892571 0.0082971426 0.72600001 1.6871449e-38
-0.11754286 0.0082971426 0.72600001 1.6963283e-38
-0.116 0.0082857152 0.72500002 1.6871446e-38
-0.11461905 0.0082857152 0.72500002 1.6871447e-38
-0.1132381 0.0082857152 0.72500002 1.6871449e-38
-0.11185715 0.0082857152 0.72500002 1.6871088e-38
-0.11047619 0.0082857152 0.72500002 1.6962564e-38
-0.10909524 0.0082857152 0.72500002 1.7146235e-38
-0.10771429 0.0082857152 0.72500002 1.7054399e-38
-0.10633333 0.0082857152 0.72500002 1.6962923e-38
-0.10495239 0.0082857152 0.72500002 1.6871088e-38
-0.10357143 0.0082857152 0.72500002 1.6871088e-38
-0.10219048 0.0082857152 0.72500002 1.6871806e-38
-0.10080953 0.0082857152 0.72500002 1.6963641e-38
-0.099428572 0.0082857152 0.72500002 1.6963641e-38
-0.097641915 0.0082514286 0.72200006 1.705512e-38
-0.096266672 0.0082514286 0.72200006 1.6963285e-38
-0.094891436 0.0082514286 0.72200006 1.6963284e-38
-0.093904763 0.0082857152 0.72500002 1.6963283e-38
-0.092523813 0.0082857152 0.72500002 1.6962924e-38
-0.090514287 0.0082285721 0.72000003 1.6963281e-38
-0.089390486 0.0082514286 0.72200006 1.7055115e-38
-0.088015243 0.0082514286 0.72200006 1.6871086e-38
-0.086760007 0.0082628578 0.72300005 1.6687415e-38
-0.085382864 0.0082628578 0.72300005 1.677961e-38
-0.084005721 0.0082628578 0.72300005 1.6871446e-38
-0.081251428 0.0082628578 0.72300005 1.6962923e-38
-0.079763815 0.0082514286 0.72200006 1.6962923e-38
-0.078388579 0.0082514286 0.72200006 1.6962923e-38
-0.077013336 0.0082514286 0.72200006 1.6871804e-38
-0.075638101 0.0082514286 0.72200006 1.6871804e-38
-0.074057147 0.0082285721 0.72000003 1.6872163e-38
-0.072685711 0.0082285721 0.72000003 1.6963278e-38
-0.07131429 0.0082285721 0.72000003 1.6871442e-38
-0.069942862 0.0082285721 0.72000003 1.6871446e-38
-0.068761908 0.0082514286 0.72200006 1.6872167e-38
-0.067480005 0.0082628578 0.72300005 1.6871449e-38
-0.066102862 0.0082628578 0.72300005 1.677961e-38
-0.064904764 0.0082857152 0.72500002 1.6779972e-38
-0.063523814 0.0082857152 0.72500002 1.7056915e-38
-0.062228575 0.0082971426 0.72600001 1.7329899e-38
-0.060845714 0.0082971426 0.72600001 1.4203535e-38
-0.059462857 0.0082971426 0.72600001 1.115784e-38
-0.058079999 0.0082971426 0.72600001 8.4794896e-39
-0.056697145 0.0082971426 0.72600001 5.8148169e-39
-0.055466671 0.00832 0.72800004 6.6398944e-39
-0.054080002 0.00832 0.72800004 7.4678502e-39
-0.052910477 0.0083542857 0.73100001 7.2845408e-39
-0.047960002 0.0087200003 0.76300001 7.1912647e-39
-0.046506666 0.0087200003 0.76300001 7.1912647e-39
-0.045053333 0.0087200003 0.76300001 7.1916221e-39
-0.043599997 0.0087200003 0.76300001 7.189827e-39
-0.042146668 0.0087200003 0.76300001 7.1901801e-39
-0.040693335 0.0087200003 0.76300001 7.0057875e-39
-0.039342858 0.0087428577 0.76500005 6.8221179e-39
-0.037885718 0.0087428577 0.76500005 6.8224794e-39
-0.35806477 0.010106667 0.75800002 2.4910995e-39
-0.35662094 0.010106667 0.75800002 2.4918142e-39
-0.35424003 0.01008 0.75600004 2.5836482e-39
-0.35233334 0.010066668 0.75500005 2.6758425e-39
-0.3457143 0.010000001 0.75000006 2.6758411e-39
-0.34336764 0.0099733332 0.74800003 2.6754879e-39
-0.3391524 0.0099333348 0.74500006 2.7659025e-39
-0.33501333 0.0098533342 0.73900002 3.0435684e-39
-0.33360571 0.0098533342 0.73900002 3.3205224e-39
-0.33219811 0.0098533342 0.73900002 3.5992701e-39
-0.32989526 0.0098266676 0.73700005 3.8808807e-39
-0.32804573 0.0098133339 0.73600006 4.3425763e-39
-0.32664382 0.0098133339 0.73600006 4.8042761e-39
-0.32435811 0.0097866664 0.73400003 5.1727055e-39
-0.32295999 0.0097866664 0.73400003 5.6329634e-39
-0.32068574 0.0097600007 0.73200005 5.9084755e-39
-0.31929144 0.0097600007 0.73200005 6.1839834e-39
-0.31789717 0.0097600007 0.73200005 6.2758217e-39
-0.3165029 0.0097600007 0.73200005 6.4594941e-39
-0.31510857 0.0097600007 0.73200005 6.3680201e-39
-0.3137143 0.0097600007 0.73200005 6.2761818e-39
-0.31232002 0.0097600007 0.73200005 6.1843449e-39
-0.31050095 0.009746667 0.73100001 6.0928681e-39
-0.30910856 0.009746667 0.73100001 6.2761818e-39
-0.30771619 0.009746667 0.73100001 6.5520484e-39
-0.30632383 0.009746667 0.73100001 6.4594983e-39
-0.30493143 0.009746667 0.73100001 6.4594983e-39
-0.30353904 0.009746667 0.73100001 6.4602157e-39
-0.30132002 0.0097200004 0.72900003 6.4609304e-39
-0.30075428 0.009746667 0.73100001 6.3690935e-39
-0.29936191 0.009746667 0.73100001 6.3694536e-39
-0.29796952 0.009746667 0.73100001 6.553126e-39
-0.29657716 0.009746667 0.73100001 6.6449615e-39
-0.29518476 0.009746667 0.73100001 6.6453217e-39
-0.29379237 0.009746667 0.73100001 6.6453273e-39
-0.29239997 0.009746667 0.73100001 6.6449741e-39
-0.29140574 0.0097600007 0.73200005 6.6449699e-39
-0.29001144 0.0097600007 0.73200005 6.8286381e-39
-0.28861716 0.0097600007 0.73200005 7.0123063e-39
-0.28722286 0.0097600007 0.73200005 7.0123049e-39
-0.28582859 0.0097600007 0.73200005 7.0126678e-39
-0.28443432 0.0097600007 0.73200005 7.1048663e-39
-0.28381333 0.0097866664 0.73400003 7.1967004e-39
-0.28241524 0.0097866664 0.73400003 7.1045047e-39
-0.28025144 0.0097600007 0.73200005 7.1041446e-39
-0.27847618 0.009746667 0.73100001 7.1041432e-39
-0.27708378 0.009746667 0.73100001 7.1959773e-39
-0.27569145 0.009746667 0.73100001 7.1045005e-39
-0.27429906 0.009746667 0.73100001 7.1045005e-39
-0.27290666 0.009746667 0.73100001 7.1966962e-39
-0.27151427 0.009746667 0.73100001 7.2888918e-39
-0.2701219 0.009746667 0.73100001 7.3810874e-39
-0.26872954 0.009746667 0.73100001 7.4743565e-39
-0.26733714 0.009746667 0.73100001 7.658026e-39
-0.26630861 0.0097600007 0.73200005 7.9346157e-39
-0.26455238 0.009746667 0.73100001 7.841711e-39
-0.26352 0.0097600007 0.73200005 7.7495098e-39
-0.2617676 0.009746667 0.73100001 8.6700116e-39
-0.26037526 0.009746667 0.73100001 9.6827258e-39
-0.25933716 0.0097600007 0.73200005 1.0512486e-38
-0.25759047 0.009746667 0.73100001 1.1434441e-38
-0.25619808 0.009746667 0.73100001 1.4102706e-38
-0.25410861 0.0097200004 0.72900003 1.668096e-38
-0.25272003 0.0097200004 0.72900003 1.8529194e-38
-0.25202096 0.009746667 0.73100001 2.0285922e-38
-0.25062856 0.009746667 0.73100001 2.1392629e-38
-0.24923618 0.009746667 0.73100001 2.2407486e-38
-0.2478438 0.009746667 0.73100001 2.1852529e-38
-0.24645144 0.009746667 0.73100001 2.1297207e-38
-0.24505906 0.009746667 0.73100001 1.7612664e-38
-0.24366666 0.009746667 0.73100001 1.3928405e-38
-0.24227428 0.009746667 0.73100001 9.1292073e-39
-0.24088189 0.009746667 0.73100001 4.2249149e-39
-0.23981716 0.0097600007 0.73200005 2.7579978e-39
-0.23842287 0.0097600007 0.73200005 1.2911676e-39
-0.23702858 0.0097600007 0.73200005 1.0146116e-39
-0.2356343 0.0097600007 0.73200005 8.2729578e-40
-0.23424001 0.0097600007 0.73200005 4.4238894e-39
-0.23348191 0.0097866664 0.73400003 8.0206232e-39
-0.23208381 0.0097866664 0.73400003 1.1802822e-38
-0.23005715 0.0097600007 0.73200005 1.5585345e-38
-0.22866288 0.0097600007 0.73200005 1.6319719e-38
-0.2269581 0.009746667 0.73100001 1.6962561e-38
-0.22556572 0.009746667 0.73100001 1.6778526e-38
-0.22356001 0.0097200004 0.72900003 1.6594497e-38
-0.22217144 0.0097200004 0.72900003 1.6594141e-38
-0.22078286 0.0097200004 0.72900003 1.6685975e-38
-0.2193943 0.0097200004 0.72900003 1.6686333e-38
-0.21800572 0.0097200004 0.72900003 1.6686692e-38
-0.21661715 0.0097200004 0.72900003 1.6686692e-38
-0.21522857 0.0097200004 0.72900003 1.677853e-38
-0.21384001 0.0097200004 0.72900003 1.6778533e-38
-0.21245143 0.0097200004 0.72900003 1.6778891e-38
-0.21106286 0.0097200004 0.72900003 1.6778891e-38
-0.20938668 0.0097066667 0.72800004 1.6871084e-38
-0.208 0.0097066667 0.72800004 1.6871084e-38
-0.20661335 0.0097066667 0.72800004 1.6871084e-38
-0.20522667 0.0097066667 0.72800004 1.6962921e-38
-0.20384002 0.0097066667 0.72800004 1.696328e-38
-0.20245335 0.0097066667 0.72800004 1.7055117e-38
-0.20106667 0.0097066667 0.72800004 1.7055117e-38
-0.19968002 0.0097066667 0.72800004 1.7147312e-38
-0.19856572 0.0097200004 0.72900003 1.7239865e-38
-0.19717716 0.0097200004 0.72900003 1.7331702e-38
-0.19578858 0.0097200004 0.72900003 1.7331701e-38
-0.19440001 0.0097200004 0.72900003 1.733206e-38
-0.19301143 0.0097200004 0.72900003 1.7424254e-38
-0.19136001 0.0097066667 0.72800004 1.7516091e-38
-0.18997334 0.0097066667 0.72800004 1.770012e-38
-0.18858667 0.0097066667 0.72800004 1.7607926e-38
-0.18720001 0.0097066667 0.72800004 1.7516091e-38
-0.18581335 0.0097066667 0.72800004 1.7239151e-38
-0.18392 0.0096800001 0.72600001 1.705512e-38
-0.18253714 0.0096800001 0.72600001 1.6963283e-38
-0.1811543 0.0096800001 0.72600001 1.6963281e-38
-0.17977144 0.0096800001 0.72600001 1.6963281e-38
-0.17838857 0.0096800001 0.72600001 1.696328e-38
-0.17700571 0.0096800001 0.72600001 1.696328e-38
-0.17562287 0.0096800001 0.72600001 1.6963278e-38
-0.17423999 0.0096800001 0.72600001 1.6963277e-38
-0.17285714 0.0096800001 0.72600001 1.6872156e-38
-0.17147429 0.0096800001 0.72600001 1.6963273e-38
-0.17009144 0.0096800001 0.72600001 1.6963276e-38
-0.16870856 0.0096800001 0.72600001 1.6962561e-38
-0.16732572 0.0096800001 0.72600001 1.705368e-38
-0.16594286 0.0096800001 0.72600001 1.6962564e-38
-0.16456001 0.0096800001 0.72600001 1.6962918e-38
-0.16317713 0.0096800001 0.72600001 1.687108e-38
-0.16179429 0.0096800001 0.72600001 1.6870365e-38
-0.16019049 0.0096666673 0.72500002 1.6870727e-38
-0.15880953 0.0096666673 0.72500002 1.6962562e-38
-0.15742858 0.0096666673 0.72500002 1.6870728e-38
-0.15604763 0.0096666673 0.72500002 1.6870728e-38
-0.15466668 0.0096666673 0.72500002 1.6870371e-38
-0.15328573 0.0096666673 0.72500002 1.6870371e-38
-0.15190476 0.0096666673 0.72500002 1.6870371e-38
-0.15052381 0.0096666673 0.72500002 1.6962564e-38
-0.14914286 0.0096666673 0.72500002 1.6962564e-38
-0.14776191 0.0096666673 0.72500002 1.6962565e-38
-0.14638096 0.0096666673 0.72500002 1.6962567e-38
-0.145 0.0096666673 0.72500002 1.6962924e-38
-0.14361905 0.0096666673 0.72500002 1.6962564e-38
-0.1422381 0.0096666673 0.72500002 1.6962564e-38
-0.14085715 0.0096666673 0.72500002 1.6962923e-38
-0.13947619 0.0096666673 0.72500002 1.6871444e-38
-0.13809523 0.0096666673 0.72500002 1.696328e-38
-0.13671429 0.0096666673 0.72500002 1.7055117e-38
-0.13533334 0.0096666673 0.72500002 1.6963283e-38
-0.13358286 0.0096400008 0.72300005 1.6871804e-38
-0.13257144 0.0096666673 0.72500002 1.6871446e-38
-0.13119048 0.0096666673 0.72500002 1.6871446e-38
-0.12980953 0.0096666673 0.72500002 1.677961e-38
-0.12842858 0.0096666673 0.72500002 1.6779612e-38
-0.12704763 0.0096666673 0.72500002 1.687109e-38
-0.12566666 0.0096666673 0.72500002 1.6871088e-38
-0.12428571 0.0096666673 0.72500002 1.6871087e-38
-0.12290476 0.0096666673 0.72500002 1.6871086e-38
-0.12152381 0.0096666673 0.72500002 1.6871086e-38
-0.12014285 0.0096666673 0.72500002 1.6871447e-38
-0.1187619 0.0096666673 0.72500002 1.6871451e-38
-0.11738096 0.0096666673 0.72500002 1.687109e-38
-0.116 0.0096666673 0.72500002 1.6871087e-38
-0.11461905 0.0096666673 0.72500002 1.677961e-38
-0.1132381 0.0096666673 0.72500002 1.6779253e-38
-0.11154858 0.0096400008 0.72300005 1.6870728e-38
-0.11017144 0.0096400008 0.72300005 1.6870728e-38
-0.10879429 0.0096400008 0.72300005 1.6962564e-38
-0.10771429 0.0096666673 0.72500002 1.6870728e-38
-0.10604001 0.0096400008 0.72300005 1.6871087e-38
-0.10466287 0.0096400008 0.72300005 1.6871088e-38
-0.10328571 0.0096400008 0.72300005 1.6871447e-38
-0.10190857 0.0096400008 0.72300005 1.6871806e-38
-0.10053144 0.0096400008 0.72300005 1.6871806e-38
-0.098742865 0.0095999995 0.72000003 1.6871806e-38
-0.097371429 0.0095999995 0.72000003 1.6963641e-38
-0.096000001 0.0095999995 0.72000003 1.6963283e-38
-0.094628572 0.0095999995 0.72000003 1.6871447e-38
-0.093645714 0.0096400008 0.72300005 1.6871088e-38
-0.090514287 0.0095999995 0.72000003 1.6963283e-38
-0.089390486 0.009626667 0.72200006 1.6963281e-38
-0.08813715 0.0096400008 0.72300005 1.677961e-38
-0.086760007 0.0096400008 0.72300005 1.6687775e-38
-0.085382864 0.0096400008 0.72300005 1.6779612e-38
-0.084005721 0.0096400008 0.72300005 1.6871447e-38
-0.082514293 0.009626667 0.72200006 1.6871447e-38
-0.081251428 0.0096400008 0.72300005 1.6963283e-38
-0.079763815 0.009626667 0.72200006 1.6962924e-38
-0.078388579 0.009626667 0.72200006 1.7054759e-38
-0.076799996 0.0095999995 0.72000003 1.6963283e-38
-0.075428575 0.0095999995 0.72000003 1.6871804e-38
-0.074057147 0.0095999995 0.72000003 1.6871446e-38
-0.072584763 0.0095866676 0.71900004 1.6963277e-38
-0.071215235 0.0095866676 0.71900004 1.6871437e-38
-0.069845721 0.0095866676 0.71900004 1.6871442e-38
-0.068571426 0.0095999995 0.72000003 1.6871446e-38
-0.067200005 0.0095999995 0.72000003 1.6871446e-38
-0.066011429 0.009626667 0.72200006 1.696364e-38
-0.064725719 0.0096400008 0.72300005 1.7148035e-38
-0.063523814 0.0096666673 0.72500002 1.6045299e-38
-0.062142856 0.0096666673 0.72500002 1.5031485e-38
-0.060845714 0.0096800001 0.72600001 1.1617393e-38
-0.059462857 0.0096800001 0.72600001 8.2857895e-39
-0.058079999 0.0096800001 0.72600001 7.4681823e-39
-0.056853335 0.0097066667 0.72800004 6.639886e-39
-0.05554286 0.0097200004 0.72900003 7.0079637e-39
-0.054154288 0.0097200004 0.72900003 7.3763777e-39
-0.052910477 0.009746667 0.73100001 7.2841792e-39
-0.049542859 0.010200001 0.76500005 7.1912647e-39
-0.047960002 0.010173334 0.76300001 7.1916235e-39
-0.046506666 0.010173334 0.76300001 7.1912647e-39
-0.045053333 0.010173334 0.76300001 7.283096e-39
-0.043714285 0.010200001 0.76500005 7.190899e-39
-0.042257145 0.010200001 0.76500005 7.1908906e-39
-0.039342858 0.010200001 0.76500005 7.0068567e-39
-0.037984762 0.010226667 0.76700002 6.7313544e-39
-0.35424003 0.01152 0.75600004 2.3996157e-39
-0.35280004 0.01152 0.75600004 2.5832881e-39
-0.3447924 0.011398096 0.74800003 2.5836468e-39
-0.34336764 0.011398096 0.74800003 2.5832923e-39
-0.3391524 0.011352382 0.74500006 2.7658941e-39
-0.33405715 0.01127619 0.74000001 2.7680605e-39
-0.33219811 0.011260953 0.73900002 2.9524588e-39
-0.32989526 0.011230477 0.73700005 3.2297702e-39
-0.32804573 0.011215239 0.73600006 3.6911098e-39
-0.32664382 0.011215239 0.73600006 4.2475122e-39
-0.32435811 0.011184762 0.73400003 4.8039146e-39
-0.32208002 0.011154287 0.73200005 5.3563681e-39
-0.32068574 0.011154287 0.73200005 5.6333165e-39
-0.31929144 0.011154287 0.73200005 6.0003054e-39
-0.31789717 0.011154287 0.73200005 6.1843407e-39
-0.3165029 0.011154287 0.73200005 6.3680173e-39
-0.3146781 0.011139047 0.73100001 6.2761874e-39
-0.3137143 0.011154287 0.73200005 6.1843491e-39
-0.31189334 0.011139047 0.73100001 6.0928681e-39
-0.31050095 0.011139047 0.73100001 6.0010312e-39
-0.30910856 0.011139047 0.73100001 6.276179e-39
-0.30771619 0.011139047 0.73100001 6.5516869e-39
-0.30632383 0.011139047 0.73100001 6.4594955e-39
-0.30493143 0.011139047 0.73100001 6.3680187e-39
-0.3027086 0.011108572 0.72900003 6.3683774e-39
-0.30132002 0.011108572 0.72900003 6.3687348e-39
-0.30075428 0.011139047 0.73100001 6.2772566e-39
-0.29936191 0.011139047 0.73100001 6.277258e-39
-0.29796952 0.011139047 0.73100001 6.4612905e-39
-0.29657716 0.011139047 0.73100001 6.736797e-39
-0.29518476 0.011139047 0.73100001 6.7371558e-39
-0.29379237 0.011139047 0.73100001 6.7371572e-39
-0.29239997 0.011139047 0.73100001 6.73716e-39
-0.29100764 0.011139047 0.73100001 6.7371614e-39
-0.28961524 0.011139047 0.73100001 6.9208323e-39
-0.28822285 0.011139047 0.73100001 7.1041418e-39
-0.28722286 0.011154287 0.73200005 7.0123049e-39
-0.28582859 0.011154287 0.73200005 7.0126664e-39
-0.28404573 0.011139047 0.73100001 7.0133867e-39
-0.28304002 0.011154287 0.73200005 7.013028e-39
-0.28164575 0.011154287 0.73200005 7.0123105e-39
-0.27986857 0.011139047 0.73100001 7.1041446e-39
-0.27771428 0.011108572 0.72900003 7.1045019e-39
-0.2763257 0.011108572 0.72900003 7.1963374e-39
-0.27493715 0.011108572 0.72900003 7.1963374e-39
-0.27354857 0.011108572 0.72900003 7.2885317e-39
-0.27290666 0.011139047 0.73100001 7.3810832e-39
-0.27151427 0.011139047 0.73100001 7.4729215e-39
-0.26938286 0.011108572 0.72900003 7.56512e-39
-0.26872954 0.011139047 0.73100001 7.7495084e-39
-0.26733714 0.011139047 0.73100001 8.0257338e-39
-0.26594475 0.011139047 0.73100001 8.3012361e-39
-0.26455238 0.011139047 0.73100001 7.8420544e-39
-0.26315999 0.011139047 0.73100001 7.3839545e-39
-0.26105142 0.011108572 0.72900003 9.3139362e-39
-0.26037526 0.011139047 0.73100001 1.1336489e-38
-0.25898287 0.011139047 0.73100001 1.1981508e-38
-0.25759047 0.011139047 0.73100001 1.2722321e-38
-0.25619808 0.011139047 0.73100001 1.6402229e-38
-0.25410861 0.011108572 0.72900003 2.0186888e-38
-0.25237334 0.011093334 0.72800004 2.1764626e-38
-0.25133145 0.011108572 0.72900003 2.3417673e-38
-0.24994285 0.011108572 0.72900003 2.3417682e-38
-0.2485543 0.011108572 0.72900003 2.3417679e-38
-0.24716572 0.011108572 0.72900003 2.1669214e-38
-0.24577715 0.011108572 0.72900003 2.0002862e-38
-0.24505906 0.011139047 0.73100001 1.319157e-38
-0.24366666 0.011139047 0.73100001 6.3712809e-39
-0.24227428 0.011139047 0.73100001 3.2244102e-39
-0.24088189 0.011139047 0.73100001 9.372865e-41
-0.23981716 0.011154287 0.73200005 1.2900774e-39
-0.23842287 0.011154287 0.73200005 2.4839403e-39
-0.23702858 0.011154287 0.73200005 1.2900802e-39
-0.2356343 0.011154287 0.73200005 1.841124e-40
-0.23424001 0.011154287 0.73200005 6.2692944e-39
-0.23348191 0.011184762 0.73400003 1.234844e-38
-0.23145144 0.011154287 0.73200005 1.4848513e-38
-0.22974285 0.011139047 0.73100001 1.7421001e-38
-0.22835048 0.011139047 0.73100001 1.6871084e-38
-0.2269581 0.011139047 0.73100001 1.6411185e-38
-0.22494859 0.011108572 0.72900003 1.65023e-38
-0.22417334 0.011139047 0.73100001 1.659378e-38
-0.22217144 0.011108572 0.72900003 1.6593781e-38
-0.22078286 0.011108572 0.72900003 1.659378e-38
-0.2193943 0.011108572 0.72900003 1.6594137e-38
-0.21800572 0.011108572 0.72900003 1.6594496e-38
-0.21632001 0.011093334 0.72800004 1.6594855e-38
-0.21493334 0.011093334 0.72800004 1.6686692e-38
-0.21354668 0.011093334 0.72800004 1.6686694e-38
-0.21216002 0.011093334 0.72800004 1.677853e-38
-0.21077335 0.011093334 0.72800004 1.677889e-38
-0.20881143 0.011062857 0.72600001 1.6778889e-38
-0.20742857 0.011062857 0.72600001 1.6778889e-38
-0.20604572 0.011062857 0.72600001 1.6870725e-38
-0.20466284 0.011062857 0.72600001 1.6871086e-38
-0.20328 0.011062857 0.72600001 1.6962923e-38
-0.20189714 0.011062857 0.72600001 1.696364e-38
-0.20051429 0.011062857 0.72600001 1.7055477e-38
-0.19913143 0.011062857 0.72600001 1.7147671e-38
-0.19774857 0.011062857 0.72600001 1.7331702e-38
-0.19636571 0.011062857 0.72600001 1.7331704e-38
-0.19498287 0.011062857 0.72600001 1.7423898e-38
-0.1936 0.011062857 0.72600001 1.7424258e-38
-0.19221714 0.011062857 0.72600001 1.7516092e-38
-0.19083428 0.011062857 0.72600001 1.7700481e-38
-0.18945143 0.011062857 0.72600001 1.7884152e-38
-0.18806857 0.011062857 0.72600001 1.7792675e-38
-0.18668571 0.011062857 0.72600001 1.7700839e-38
-0.18530287 0.011062857 0.72600001 1.7330988e-38
-0.18392 0.011062857 0.72600001 1.7054761e-38
-0.18253714 0.011062857 0.72600001 1.7054399e-38
-0.18090478 0.011047619 0.72500002 1.7055117e-38
-0.17977144 0.011062857 0.72600001 1.7055115e-38
-0.17814286 0.011047619 0.72500002 1.7055115e-38
-0.17676191 0.011047619 0.72500002 1.696328e-38
-0.17538096 0.011047619 0.72500002 1.696328e-38
-0.17400001 0.011047619 0.72500002 1.6871803e-38
-0.17261904 0.011047619 0.72500002 1.6871802e-38
-0.17123809 0.011047619 0.72500002 1.6963636e-38
-0.16985714 0.011047619 0.72500002 1.7055114e-38
-0.16847619 0.011047619 0.72500002 1.7054757e-38
-0.16709524 0.011047619 0.72500002 1.7054757e-38
-0.16571428 0.011047619 0.72500002 1.7054758e-38
-0.16433333 0.011047619 0.72500002 1.7054755e-38
-0.16295238 0.011047619 0.72500002 1.6962918e-38
-0.16157143 0.011047619 0.72500002 1.6871084e-38
-0.16019049 0.011047619 0.72500002 1.6871087e-38
-0.15880953 0.011047619 0.72500002 1.6962564e-38
-0.15742858 0.011047619 0.72500002 1.6870728e-38
-0.15604763 0.011047619 0.72500002 1.6870727e-38
-0.15466668 0.011047619 0.72500002 1.6686697e-38
-0.15328573 0.011047619 0.72500002 1.659486e-38
-0.15190476 0.011047619 0.72500002 1.677853e-38
-0.15052381 0.011047619 0.72500002 1.6962202e-38
-0.14914286 0.011047619 0.72500002 1.6870368e-38
-0.14776191 0.011047619 0.72500002 1.6778893e-38
-0.14638096 0.011047619 0.72500002 1.6871088e-38
-0.145 0.011047619 0.72500002 1.6962921e-38
-0.14322285 0.011017144 0.72300005 1.6870725e-38
-0.1422381 0.011047619 0.72500002 1.6870727e-38
-0.14046857 0.011017144 0.72300005 1.6871088e-38
-0.13909143 0.011017144 0.72300005 1.6871087e-38
-0.1377143 0.011017144 0.72300005 1.6962923e-38
-0.13633715 0.011017144 0.72300005 1.7146595e-38
-0.13496001 0.011017144 0.72300005 1.6963284e-38
-0.13358286 0.011017144 0.72300005 1.6871447e-38
-0.13220572 0.011017144 0.72300005 1.6872163e-38
-0.13082857 0.011017144 0.72300005 1.6871804e-38
-0.12945144 0.011017144 0.72300005 1.6780328e-38
-0.1280743 0.011017144 0.72300005 1.677961e-38
-0.12669715 0.011017144 0.72300005 1.6779612e-38
-0.12566666 0.011047619 0.72500002 1.6871087e-38
-0.12394287 0.011017144 0.72300005 1.6962562e-38
-0.12290476 0.011047619 0.72500002 1.7054755e-38
-0.12152381 0.011047619 0.72500002 1.6962918e-38
-0.12014285 0.011047619 0.72500002 1.6871443e-38
-0.1187619 0.011047619 0.72500002 1.6871444e-38
-0.11738096 0.011047619 0.72500002 1.6871086e-38
-0.116 0.011047619 0.72500002 1.677925e-38
-0.11461905 0.011047619 0.72500002 1.677925e-38
-0.11292572 0.011017144 0.72300005 1.6779252e-38
-0.11154858 0.011017144 0.72300005 1.6871086e-38
-0.11017144 0.011017144 0.72300005 1.6779607e-38
-0.10879429 0.011017144 0.72300005 1.677925e-38
-0.10741715 0.011017144 0.72300005 1.6779252e-38
-0.10604001 0.011017144 0.72300005 1.6871088e-38
-0.10466287 0.011017144 0.72300005 1.6871088e-38
-0.10314287 0.011001905 0.72200006 1.6962924e-38
-0.10148572 0.010971429 0.72000003 1.6871806e-38
-0.10011429 0.010971429 0.72000003 1.6779612e-38
-0.098742865 0.010971429 0.72000003 1.6871447e-38
-0.097236194 0.010956191 0.71900004 1.6963283e-38
-0.096000001 0.010971429 0.72000003 1.6871806e-38
-0.094628572 0.010971429 0.72000003 1.6871447e-38
-0.093257144 0.010971429 0.72000003 1.6871088e-38
-0.091885716 0.010971429 0.72000003 1.6962924e-38
-0.090514287 0.010971429 0.72000003 1.6871447e-38
-0.089142859 0.010971429 0.72000003 1.6871447e-38
-0.08813715 0.011017144 0.72300005 1.6778894e-38
-0.086760007 0.011017144 0.72300005 1.6779254e-38
-0.085382864 0.011017144 0.72300005 1.6779614e-38
-0.084005721 0.011017144 0.72300005 1.6871447e-38
-0.082514293 0.011001905 0.72200006 1.6871446e-38
-0.08113905 0.011001905 0.72200006 1.6963281e-38
-0.079763815 0.011001905 0.72200006 1.7055117e-38
-0.078171432 0.010971429 0.72000003 1.7146593e-38
-0.076799996 0.010971429 0.72000003 1.7054759e-38
-0.075428575 0.010971429 0.72000003 1.6963283e-38
-0.073954292 0.010956191 0.71900004 1.6963284e-38
-0.072584763 0.010956191 0.71900004 1.696328e-38
-0.071017146 0.010925714 0.71700001 1.68718e-38
-0.069845721 0.010956191 0.71900004 1.6871802e-38
-0.068476193 0.010956191 0.71900004 1.6872522e-38
-0.067106672 0.010956191 0.71900004 1.6872166e-38
-0.065828577 0.010971429 0.72000003 1.7239511e-38
-0.064636193 0.011001905 0.72200006 1.7606486e-38
-0.063523814 0.011047619 0.72500002 1.5125485e-38
-0.062142856 0.011047619 0.72500002 1.2719771e-38
-0.060845714 0.011062857 0.72600001 9.1234255e-39
-0.059462857 0.011062857 0.72600001 5.5400307e-39
-0.058240004 0.011093334 0.72800004 6.5487694e-39
-0.056853335 0.011093334 0.72800004 7.5593242e-39
-0.05554286 0.011108572 0.72900003 7.3760189e-39
-0.054154288 0.011108572 0.72900003 7.2841792e-39
-0.052765716 0.011108572 0.72900003 7.2838177e-39
-0.051000003 0.011657143 0.76500005 7.46713e-39
-0.049542859 0.011657143 0.76500005 7.3756532e-39
-0.048085716 0.011657143 0.76500005 7.2838191e-39
-0.046628572 0.011657143 0.76500005 7.2838219e-39
-0.045289524 0.01168762 0.76700002 7.3752945e-39
-0.043885715 0.011702857 0.76800001 7.2834548e-39
-0.042422857 0.011702857 0.76800001 7.2834534e-39
-0.041066669 0.011733334 0.77000004 7.1916179e-39
-0.0396 0.011733334 0.77000004 7.1916109e-39
-0.038133334 0.011733334 0.77000004 6.7327851e-39
-0.3457143 0.012857144 0.75000006 2.4903778e-39
-0.34428573 0.012857144 0.75000006 2.3070656e-39
-0.34285718 0.012857144 0.75000006 2.3989025e-39
-0.3391524 0.012771429 0.74500006 2.490738e-39
-0.33773336 0.012771429 0.74500006 2.5822147e-39
-0.33219811 0.012668571 0.73900002 2.7676962e-39
-0.32989526 0.012634287 0.73700005 2.9520987e-39
-0.32849145 0.012634287 0.73700005 3.228338e-39
-0.32664382 0.012617144 0.73600006 3.4130908e-39
-0.32524192 0.012617144 0.73600006 3.9702079e-39
-0.32295999 0.012582858 0.73400003 4.5273263e-39
-0.3215619 0.012582858 0.73400003 5.0801399e-39
-0.31929144 0.012548571 0.73200005 5.5411209e-39
-0.31789717 0.012548571 0.73200005 5.8169959e-39
-0.3165029 0.012548571 0.73200005 6.0925108e-39
-0.3146781 0.012531429 0.73100001 6.1843561e-39
-0.31328571 0.012531429 0.73100001 6.185068e-39
-0.31189334 0.012531429 0.73100001 6.184705e-39
-0.31050095 0.012531429 0.73100001 6.2765377e-39
-0.30910856 0.012531429 0.73100001 6.3683704e-39
-0.30687431 0.012497144 0.72900003 6.552403e-39
-0.30548573 0.012497144 0.72900003 6.4602115e-39
-0.30409715 0.012497144 0.72900003 6.4602115e-39
-0.3027086 0.012497144 0.72900003 6.4602115e-39
-0.30132002 0.012497144 0.72900003 6.5524044e-39
-0.29993144 0.012497144 0.72900003 6.4609276e-39
-0.29854286 0.012497144 0.72900003 6.3690935e-39
-0.29715431 0.012497144 0.72900003 6.553126e-39
-0.29576573 0.012497144 0.72900003 6.7371543e-39
-0.29437715 0.012497144 0.72900003 6.8289898e-39
-0.29298857 0.012497144 0.72900003 6.9211827e-39
-0.29239997 0.012531429 0.73100001 6.7371529e-39
-0.29021144 0.012497144 0.72900003 6.5534862e-39
-0.28961524 0.012531429 0.73100001 6.8289983e-39
-0.28822285 0.012531429 0.73100001 7.1041432e-39
-0.28683048 0.012531429 0.73100001 7.0123049e-39
-0.28543809 0.012531429 0.73100001 6.9208295e-39
-0.28326857 0.012497144 0.72900003 7.0130252e-39
-0.28265333 0.012531429 0.73100001 7.0130266e-39
-0.28126097 0.012531429 0.73100001 7.1048649e-39
-0.27910286 0.012497144 0.72900003 7.196699e-39
-0.27733335 0.012480001 0.72800004 7.2885331e-39
-0.27594668 0.012480001 0.72800004 7.2885331e-39
-0.27456003 0.012480001 0.72800004 7.2888932e-39
-0.27354857 0.012497144 0.72900003 7.2892491e-39
-0.27215999 0.012497144 0.72900003 7.4732775e-39
-0.27077141 0.012497144 0.72900003 7.6580288e-39
-0.26938286 0.012497144 0.72900003 7.8413467e-39
-0.26872954 0.012531429 0.73100001 8.0250205e-39
-0.26660571 0.012497144 0.72900003 8.1172189e-39
-0.26521716 0.012497144 0.72900003 8.2097565e-39
-0.26382858 0.012497144 0.72900003 8.5770831e-39
-0.26315999 0.012531429 0.73100001 8.9508906e-39
-0.26105142 0.012497144 0.72900003 1.0884468e-38
-0.25966287 0.012497144 0.72900003 1.2910255e-38
-0.25827429 0.012497144 0.72900003 1.493676e-38
-0.25688571 0.012497144 0.72900003 1.6963647e-38
-0.25549716 0.012497144 0.72900003 1.9363975e-38
-0.25376001 0.012480001 0.72800004 2.1764631e-38
-0.25237334 0.012480001 0.72800004 2.2591171e-38
-0.25098667 0.012480001 0.72800004 2.341769e-38
-0.24960001 0.012480001 0.72800004 2.3325854e-38
-0.24821335 0.012480001 0.72800004 2.3325846e-38
-0.24716572 0.012497144 0.72900003 1.8352372e-38
-0.24544001 0.012480001 0.72800004 1.3382058e-38
-0.24438857 0.012497144 0.72900003 8.2987445e-39
-0.24366666 0.012531429 0.73100001 3.2147258e-39
-0.24227428 0.012531429 0.73100001 2.1140731e-39
-0.24088189 0.012531429 0.73100001 1.0138535e-39
-0.24047238 0.012582858 0.73400003 1.5670328e-39
-0.2390743 0.012582858 0.73400003 2.2123672e-39
-0.2376762 0.012582858 0.73400003 1.1067301e-39
-0.2362781 0.012582858 0.73400003 9.2300727e-41
-0.23424001 0.012548571 0.73200005 5.1648428e-39
-0.23284574 0.012548571 0.73200005 1.0339967e-38
-0.23145144 0.012548571 0.73200005 1.3284852e-38
-0.22974285 0.012531429 0.73100001 1.6230751e-38
-0.22835048 0.012531429 0.73100001 1.6412976e-38
-0.2269581 0.012531429 0.73100001 1.668633e-38
-0.22494859 0.012497144 0.72900003 1.6594136e-38
-0.22356001 0.012497144 0.72900003 1.6593778e-38
-0.22217144 0.012497144 0.72900003 1.6501946e-38
-0.22078286 0.012497144 0.72900003 1.6501943e-38
-0.2193943 0.012497144 0.72900003 1.6501942e-38
-0.21770668 0.012480001 0.72800004 1.6501942e-38
-0.21632001 0.012480001 0.72800004 1.6502659e-38
-0.21434285 0.012445714 0.72600001 1.6594496e-38
-0.21296 0.012445714 0.72600001 1.6594497e-38
-0.21157715 0.012445714 0.72600001 1.6686334e-38
-0.21019429 0.012445714 0.72600001 1.6686336e-38
-0.20881143 0.012445714 0.72600001 1.677853e-38
-0.20742857 0.012445714 0.72600001 1.677853e-38
-0.20576191 0.012428571 0.72500002 1.6870367e-38
-0.20438096 0.012428571 0.72500002 1.6870728e-38
-0.20300001 0.012428571 0.72500002 1.6962923e-38
-0.20161906 0.012428571 0.72500002 1.6963283e-38
-0.20023809 0.012428571 0.72500002 1.7055836e-38
-0.19913143 0.012445714 0.72600001 1.7147672e-38
-0.19774857 0.012445714 0.72600001 1.7331704e-38
-0.19636571 0.012445714 0.72600001 1.7331705e-38
-0.19498287 0.012445714 0.72600001 1.7424259e-38
-0.1936 0.012445714 0.72600001 1.7516098e-38
-0.19221714 0.012445714 0.72600001 1.7700126e-38
-0.19083428 0.012445714 0.72600001 1.7885948e-38
-0.18919048 0.012428571 0.72500002 1.8163605e-38
-0.18780953 0.012428571 0.72500002 1.7977065e-38
-0.18642858 0.012428571 0.72500002 1.7793752e-38
-0.18504763 0.012428571 0.72500002 1.7516454e-38
-0.18366668 0.012428571 0.72500002 1.7237714e-38
-0.18228573 0.012428571 0.72500002 1.7145876e-38
-0.18090478 0.012428571 0.72500002 1.7055115e-38
-0.17952381 0.012428571 0.72500002 1.7055115e-38
-0.17814286 0.012428571 0.72500002 1.714731e-38
-0.17676191 0.012428571 0.72500002 1.7055117e-38
-0.17489715 0.012394287 0.72300005 1.7055118e-38
-0.17352001 0.012394287 0.72300005 1.6963284e-38
-0.17214286 0.012394287 0.72300005 1.6871447e-38
-0.17076573 0.012394287 0.72300005 1.6963281e-38
-0.16985714 0.012428571 0.72500002 1.7055117e-38
-0.16847619 0.012428571 0.72500002 1.7054758e-38
-0.16709524 0.012428571 0.72500002 1.7054758e-38
-0.16571428 0.012428571 0.72500002 1.7054758e-38
-0.16433333 0.012428571 0.72500002 1.7054398e-38
-0.16295238 0.012428571 0.72500002 1.6962921e-38
-0.16157143 0.012428571 0.72500002 1.6962923e-38
-0.15974858 0.012394287 0.72300005 1.6962567e-38
-0.15880953 0.012428571 0.72500002 1.6962565e-38
-0.15742858 0.012428571 0.72500002 1.6870728e-38
-0.15604763 0.012428571 0.72500002 1.6870727e-38
-0.15466668 0.012428571 0.72500002 1.677889e-38
-0.15328573 0.012428571 0.72500002 1.6687052e-38
-0.15148573 0.012394287 0.72300005 1.6778884e-38
-0.15010858 0.012394287 0.72300005 1.6962558e-38
-0.14873144 0.012394287 0.72300005 1.6870727e-38
-0.1473543 0.012394287 0.72300005 1.6871087e-38
-0.14597715 0.012394287 0.72300005 1.6871088e-38
-0.14460002 0.012394287 0.72300005 1.6871443e-38
-0.14322285 0.012394287 0.72300005 1.6779605e-38
-0.14184572 0.012394287 0.72300005 1.6779609e-38
-0.14027429 0.012377144 0.72200006 1.6779614e-38
-0.13889906 0.012377144 0.72200006 1.6871449e-38
-0.13752382 0.012377144 0.72200006 1.6962924e-38
-0.13614857 0.012377144 0.72200006 1.6962925e-38
-0.13477334 0.012377144 0.72200006 1.6962928e-38
-0.1333981 0.012377144 0.72200006 1.6871449e-38
-0.13202286 0.012377144 0.72200006 1.6871447e-38
-0.13082857 0.012394287 0.72300005 1.6871446e-38
-0.12945144 0.012394287 0.72300005 1.6963281e-38
-0.12789714 0.012377144 0.72200006 1.7055117e-38
-0.12669715 0.012394287 0.72300005 1.6963283e-38
-0.12532002 0.012394287 0.72300005 1.6871446e-38
-0.12394287 0.012394287 0.72300005 1.6871444e-38
-0.12256573 0.012394287 0.72300005 1.6963277e-38
-0.12118858 0.012394287 0.72300005 1.6779605e-38
-0.11981144 0.012394287 0.72300005 1.6688126e-38
-0.1184343 0.012394287 0.72300005 1.6779602e-38
-0.11705715 0.012394287 0.72300005 1.687144e-38
-0.11568 0.012394287 0.72300005 1.6871084e-38
-0.11430286 0.012394287 0.72300005 1.6871086e-38
-0.11292572 0.012394287 0.72300005 1.6871087e-38
-0.11139429 0.012377144 0.72200006 1.6871443e-38
-0.11001906 0.012377144 0.72200006 1.6779606e-38
-0.10864382 0.012377144 0.72200006 1.6779609e-38
-0.10741715 0.012394287 0.72300005 1.6779253e-38
-0.10589334 0.012377144 0.72200006 1.6871088e-38
-0.10451811 0.012377144 0.72200006 1.6962925e-38
-0.10285715 0.012342858 0.72000003 1.7054761e-38
-0.10148572 0.012342858 0.72000003 1.687109e-38
-0.10011429 0.012342858 0.72000003 1.6687419e-38
-0.098605715 0.012325714 0.71900004 1.6779613e-38
-0.097371429 0.012342858 0.72000003 1.6871447e-38
-0.095866673 0.012325714 0.71900004 1.6871447e-38
-0.094628572 0.012342858 0.72000003 1.6871447e-38
-0.093516201 0.012377144 0.72200006 1.6871447e-38
-0.091758102 0.012325714 0.71900004 1.6871447e-38
-0.090388574 0.012325714 0.71900004 1.6871447e-38
-0.089142859 0.012342858 0.72000003 1.6871806e-38
-0.088015243 0.012377144 0.72200006 1.6779254e-38
-0.086640008 0.012377144 0.72200006 1.6779256e-38
-0.085264765 0.012377144 0.72200006 1.6779617e-38
-0.083889529 0.012377144 0.72200006 1.6871807e-38
-0.082285717 0.012342858 0.72000003 1.6871446e-38
-0.080914289 0.012342858 0.72000003 1.6963281e-38
-0.07954286 0.012342858 0.72000003 1.6963281e-38
-0.078171432 0.012342858 0.72000003 1.7055475e-38
-0.076799996 0.012342858 0.72000003 1.6963283e-38
-0.075323813 0.012325714 0.71900004 1.6963284e-38
-0.073748574 0.012291429 0.71700001 1.6963646e-38
-0.072382852 0.012291429 0.71700001 1.6964002e-38
-0.071017146 0.012291429 0.71700001 1.6963999e-38
-0.069651432 0.012291429 0.71700001 1.6963999e-38
-0.068285711 0.012291429 0.71700001 1.7056193e-38
-0.066919997 0.012291429 0.71700001 1.7240587e-38
-0.065554284 0.012291429 0.71700001 1.6505191e-38
-0.064457141 0.012342858 0.72000003 1.5769409e-38
-0.063523814 0.012428571 0.72500002 1.2356765e-38
-0.062142856 0.012428571 0.72500002 9.030525e-39
-0.060845714 0.012445714 0.72600001 7.7426042e-39
-0.059626672 0.012480001 0.72800004 6.5469715e-39
-0.058240004 0.012480001 0.72800004 7.0083238e-39
-0.056931432 0.012497144 0.72900003 7.4682132e-39
-0.055695236 0.012531429 0.73100001 7.3760147e-39
-0.054154288 0.012497144 0.72900003 7.2841764e-39
-0.052548572 0.012445714 0.72600001 7.2838163e-39
-0.051000003 0.013114286 0.76500005 7.4682076e-39
-0.049542859 0.013114286 0.76500005 7.3763707e-39
-0.048211429 0.013148572 0.76700002 7.2845394e-39
-0.046750478 0.013148572 0.76700002 7.3756616e-39
-0.045348573 0.013165714 0.76800001 7.4678502e-39
-0.043885715 0.013165714 0.76800001 7.3760105e-39
-0.042422857 0.013165714 0.76800001 7.2845408e-39
-0.041066669 0.013200001 0.77000004 7.0090413e-39
-0.0396 0.013200001 0.77000004 6.8253521e-39
-0.038232382 0.013234286 0.77200001 6.2721685e-39
-0.3457143 0.014285715 0.75000006 2.3985381e-39
-0.34428573 0.014285715 0.75000006 2.1230316e-39
-0.34285718 0.014285715 0.75000006 2.2145084e-39
-0.33079049 0.014076191 0.73900002 2.7666186e-39
-0.32849145 0.014038096 0.73700005 2.6744328e-39
-0.32708764 0.014038096 0.73700005 2.6755188e-39
-0.32568383 0.014038096 0.73700005 3.2276178e-39
-0.32384005 0.014019049 0.73600006 3.7840215e-39
-0.3215619 0.013980952 0.73400003 4.4322608e-39
-0.31929144 0.013942858 0.73200005 5.1705405e-39
-0.31789717 0.013942858 0.73200005 5.5418369e-39
-0.3165029 0.013942858 0.73200005 5.9091873e-39
-0.3146781 0.013923809 0.73100001 6.0928667e-39
-0.31328571 0.013923809 0.73100001 6.2765377e-39
-0.31104001 0.013885715 0.72900003 6.3687334e-39
-0.30965143 0.013885715 0.72900003 6.5520442e-39
-0.30826288 0.013885715 0.72900003 6.5520442e-39
-0.30645335 0.013866668 0.72800004 6.5520456e-39
-0.30548573 0.013885715 0.72900003 6.5524072e-39
-0.30409715 0.013885715 0.72900003 6.6442399e-39
-0.3027086 0.013885715 0.72900003 6.6442385e-39
-0.30090669 0.013866668 0.72800004 6.7360739e-39
-0.29993144 0.013885715 0.72900003 6.5527631e-39
-0.29854286 0.013885715 0.72900003 6.460929e-39
-0.29715431 0.013885715 0.72900003 6.553126e-39
-0.29576573 0.013885715 0.72900003 6.736797e-39
-0.29437715 0.013885715 0.72900003 6.9208267e-39
-0.29298857 0.013885715 0.72900003 7.1044963e-39
-0.29160002 0.013885715 0.72900003 6.7371543e-39
-0.28981334 0.013866668 0.72800004 6.3698166e-39
-0.28882286 0.013885715 0.72900003 6.7371642e-39
-0.28743428 0.013885715 0.72900003 7.1963374e-39
-0.28683048 0.013923809 0.73100001 7.0126636e-39
-0.28543809 0.013923809 0.73100001 6.9208295e-39
-0.28326857 0.013885715 0.72900003 7.0130238e-39
-0.28187999 0.013885715 0.72900003 7.1045033e-39
-0.28049144 0.013885715 0.72900003 7.1963416e-39
-0.27910286 0.013885715 0.72900003 7.38037e-39
-0.27733335 0.013866668 0.72800004 7.3807287e-39
-0.27594668 0.013866668 0.72800004 7.4729229e-39
-0.27456003 0.013866668 0.72800004 7.3814462e-39
-0.27317336 0.013866668 0.72800004 7.3818035e-39
-0.27178666 0.013866668 0.72800004 7.6576673e-39
-0.27077141 0.013885715 0.72900003 7.9335381e-39
-0.26938286 0.013885715 0.72900003 8.1179308e-39
-0.26799428 0.013885715 0.72900003 8.3930743e-39
-0.26624 0.013866668 0.72800004 8.2122704e-39
-0.26521716 0.013885715 0.72900003 8.1193559e-39
-0.26382858 0.013885715 0.72900003 9.3121398e-39
-0.26244 0.013885715 0.72900003 1.0516431e-38
-0.26069337 0.013866668 0.72800004 1.2447873e-38
-0.25930667 0.013866668 0.72800004 1.4475815e-38
-0.25792 0.013866668 0.72800004 1.788129e-38
-0.25653335 0.013866668 0.72800004 2.1292507e-38
-0.25549716 0.013885715 0.72900003 2.2315644e-38
-0.25376001 0.013866668 0.72800004 2.341768e-38
-0.25237334 0.013866668 0.72800004 2.341769e-38
-0.25098667 0.013866668 0.72800004 2.3417689e-38
-0.24960001 0.013866668 0.72800004 2.3325853e-38
-0.24821335 0.013866668 0.72800004 2.3223923e-38
-0.24716572 0.013885715 0.72900003 1.5035448e-38
-0.24544001 0.013866668 0.72800004 6.8329695e-39
-0.24438857 0.013885715 0.72900003 3.4059372e-39
-0.24366666 0.013923809 0.73100001 9.5885249e-41
-0.24227428 0.013923809 0.73100001 1.0134961e-39
-0.24121144 0.013942858 0.73200005 2.025839e-39
-0.24047238 0.013980952 0.73400003 1.9361559e-39
-0.2390743 0.013980952 0.73400003 1.9372209e-39
-0.23832382 0.014019049 0.73600006 1.0156261e-39
-0.2362781 0.013980952 0.73400003 9.2981758e-41
-0.23488 0.013980952 0.73400003 4.1524145e-39
-0.23284574 0.013942858 0.73200005 8.3023038e-39
-0.23145144 0.013942858 0.73200005 1.1629262e-38
-0.22974285 0.013923809 0.73100001 1.5031856e-38
-0.22835048 0.013923809 0.73100001 1.595525e-38
-0.2269581 0.013923809 0.73100001 1.6963997e-38
-0.22494859 0.013885715 0.72900003 1.6778883e-38
-0.22356001 0.013885715 0.72900003 1.6594852e-38
-0.22186668 0.013866668 0.72800004 1.6502658e-38
-0.22048001 0.013866668 0.72800004 1.6502299e-38
-0.21909335 0.013866668 0.72800004 1.6410465e-38
-0.21710858 0.013828572 0.72600001 1.6410106e-38
-0.21572572 0.013828572 0.72600001 1.6410824e-38
-0.21434285 0.013828572 0.72600001 1.65023e-38
-0.21296 0.013828572 0.72600001 1.6594137e-38
-0.21157715 0.013828572 0.72600001 1.6686331e-38
-0.21019429 0.013828572 0.72600001 1.6686333e-38
-0.20852382 0.013809524 0.72500002 1.6778168e-38
-0.20714286 0.013809524 0.72500002 1.6778528e-38
-0.20576191 0.013809524 0.72500002 1.6870365e-38
-0.20438096 0.013809524 0.72500002 1.6870725e-38
-0.20300001 0.013809524 0.72500002 1.6962562e-38
-0.20161906 0.013809524 0.72500002 1.6963281e-38
-0.20023809 0.013809524 0.72500002 1.7055475e-38
-0.19885714 0.013809524 0.72500002 1.714803e-38
-0.19747619 0.013809524 0.72500002 1.7331702e-38
-0.19609524 0.013809524 0.72500002 1.7423541e-38
-0.19471429 0.013809524 0.72500002 1.7516095e-38
-0.19333333 0.013809524 0.72500002 1.7700486e-38
-0.19195238 0.013809524 0.72500002 1.7884516e-38
-0.19057143 0.013809524 0.72500002 1.8163968e-38
-0.18919048 0.013809524 0.72500002 1.853095e-38
-0.18780953 0.013809524 0.72500002 1.8161813e-38
-0.18642858 0.013809524 0.72500002 1.7885588e-38
-0.18504763 0.013809524 0.72500002 1.761008e-38
-0.18316001 0.01377143 0.72300005 1.7423894e-38
-0.18178286 0.01377143 0.72300005 1.7237707e-38
-0.18040572 0.01377143 0.72300005 1.7055473e-38
-0.17902859 0.01377143 0.72300005 1.714731e-38
-0.17765144 0.01377143 0.72300005 1.7330619e-38
-0.1762743 0.01377143 0.72300005 1.7238423e-38
-0.17465526 0.013752382 0.72200006 1.7146949e-38
-0.17328002 0.013752382 0.72200006 1.7055836e-38
-0.17190477 0.013752382 0.72200006 1.6963281e-38
-0.17052953 0.013752382 0.72200006 1.6962921e-38
-0.1691543 0.013752382 0.72200006 1.7054758e-38
-0.16777906 0.013752382 0.72200006 1.7054758e-38
-0.16663431 0.01377143 0.72300005 1.7054758e-38
-0.16525716 0.01377143 0.72300005 1.7054758e-38
-0.16388001 0.01377143 0.72300005 1.7054758e-38
-0.16250286 0.01377143 0.72300005 1.7055117e-38
-0.16112572 0.01377143 0.72300005 1.7054758e-38
-0.15952763 0.013752382 0.72200006 1.6962565e-38
