# .PCD v0.7 - Point Cloud Data file format
VERSION 0.7
FIELDS x y z rgb
SIZE 4 4 4 4
TYPE F F F F
COUNT 1 1 1 1
WIDTH 769
HEIGHT 1
VIEWPOINT 0 0 0 1 0 0 0
POINTS 769
DATA ascii
-0.30420002 -0.11700001 0.81900007 7.4692978e-39
-0.2978476 -0.11757143 0.82300001 7.6540422e-39
-0.29628 -0.11757143 0.82300001 7.8384278e-39
-0.29471236 -0.11757143 0.82300001 8.0224561e-39
-0.29399621 -0.1157219 0.82100004 7.5636444e-39
-0.29412001 -0.11360191 0.81700003 6.6435056e-39
-0.29256383 -0.11360191 0.81700003 7.0108462e-39
-0.28993905 -0.11318476 0.81400001 7.4703796e-39
-0.28626287 -0.11235048 0.80800003 7.7455245e-39
-0.28164572 -0.11235048 0.80800003 8.2965221e-39
-0.29256383 -0.11204571 0.81700003 6.5523917e-39
-0.28993905 -0.11163428 0.81400001 7.1030432e-39
-0.28626287 -0.11081143 0.80800003 7.3785469e-39
-0.28164572 -0.11081143 0.80800003 8.0210212e-39
-0.28010666 -0.11081143 0.80800003 8.2054083e-39
-0.31123811 -0.11048953 0.81700003 7.0086826e-39
-0.31513333 -0.10866667 0.81500006 7.3756574e-39
-0.31358096 -0.10866667 0.81500006 7.0083182e-39
-0.2784 -0.10826667 0.81200004 7.7448029e-39
-0.28098097 -0.10711429 0.81500006 7.1023173e-39
-0.2794286 -0.10711429 0.81500006 7.2859855e-39
-0.2778762 -0.10711429 0.81500006 7.5614836e-39
-0.28080001 -0.10491429 0.81000006 6.4601989e-39
-0.27925718 -0.10491429 0.81000006 6.643507e-39
-0.27771431 -0.10491429 0.81000006 6.9186519e-39
-0.27412573 -0.10413714 0.80400002 7.1941514e-39
-0.27259427 -0.10413714 0.80400002 7.3770979e-39
-0.27173716 -0.10439619 0.80600005 7.5607703e-39
-0.27565715 -0.10260572 0.80400002 6.8275423e-39
-0.26209524 -0.10057142 0.80000001 7.3749203e-39
-0.29850668 -0.10053334 0.81200004 6.0935898e-39
-0.25992 -0.098800004 0.79800004 7.375279e-39
-0.25678098 -0.098180957 0.79300004 7.4671258e-39
-0.25527051 -0.098180957 0.79300004 7.5593158e-39
-0.27787814 -0.098255247 0.80600005 6.3690963e-39
-0.25678098 -0.096670479 0.79300004 7.4682104e-39
-0.25224951 -0.095160007 0.79300004 7.7433553e-39
-0.25447619 -0.092952378 0.80000001 7.1944961e-39
-0.25447619 -0.09142857 0.80000001 7.0115566e-39
-0.30781716 -0.088822857 0.80400002 5.9091972e-39
-0.2453143 -0.087828569 0.79500002 7.4721886e-39
-0.2438 -0.087828569 0.79500002 7.8384432e-39
-0.2438 -0.086314291 0.79500002 7.5636682e-39
-0.32996574 -0.085546672 0.80200005 5.9988592e-39
-0.27037525 -0.081565715 0.79300004 6.5527687e-39
-0.26954287 -0.081771426 0.79500002 6.5531302e-39
-0.23805334 -0.081359997 0.79100001 7.3817909e-39
-0.14916 -0.081359997 0.79100001 1.2160447e-38
-0.33549905 -0.080459051 0.79700005 5.9062937e-39
-0.30813715 -0.080055244 0.79300004 5.9088342e-39
-0.30856001 -0.080560006 0.79800004 6.0010312e-39
-0.27477524 -0.080459051 0.79700005 6.7364397e-39
-0.26870289 -0.078940958 0.79700005 7.1034229e-39
-0.26651427 -0.078742854 0.79500002 6.8282738e-39
-0.24553144 -0.07785143 0.78600001 6.4612961e-39
-0.14409143 -0.078049526 0.78800005 1.4744747e-38
-0.33919999 -0.077228576 0.79500002 6.0892472e-39
-0.26584381 -0.077034287 0.79300004 6.5524086e-39
-0.22664382 -0.076548576 0.78800005 8.0264344e-39
-0.22400001 -0.076159999 0.78400004 8.3908897e-39
-0.22250669 -0.076159999 0.78400004 8.7557136e-39
-0.21952002 -0.076159999 0.78400004 7.8362726e-39
-0.21802667 -0.076159999 0.78400004 7.7447916e-39
-0.13923429 -0.076354288 0.78600001 1.1333872e-38
-0.21802667 -0.074666664 0.78400004 7.6508164e-39
-0.16468571 -0.074857138 0.78600001 7.5503363e-39
-0.16468571 -0.073359996 0.78600001 9.4910491e-39
-0.13141334 -0.073173337 0.78400004 1.0500546e-38
-0.14244573 -0.071222864 0.77900004 1.6962924e-38
-0.14096192 -0.071222864 0.77900004 1.6962927e-38
-0.1394781 -0.071222864 0.77900004 1.7055122e-38
-0.13799429 -0.071222864 0.77900004 1.7239854e-38
-0.13354285 -0.071222864 0.77900004 1.7055397e-38
-0.12992001 -0.071680009 0.78400004 1.2528144e-38
-0.34672004 -0.070544764 0.78800005 6.5469701e-39
-0.16384763 -0.070007622 0.78200006 1.4198161e-38
-0.16277334 -0.070186675 0.78400004 1.6876467e-38
-0.12809905 -0.070007622 0.78200006 1.3364708e-38
-0.12660953 -0.070007622 0.78200006 1.160798e-38
-0.31589717 -0.068868577 0.78600001 6.36766e-39
-0.29568762 -0.069043808 0.78800005 6.2768979e-39
-0.29418668 -0.069043808 0.78800005 6.4605703e-39
-0.14001524 -0.068518102 0.78200006 1.6963283e-38
-0.1231562 -0.068255246 0.77900004 1.2343392e-38
-0.21002287 -0.067028575 0.78200006 8.302301e-39
-0.20328191 -0.06528762 0.77900004 8.0221072e-39
-0.11809524 -0.064952381 0.77500004 1.437635e-38
-0.11661905 -0.064952381 0.77500004 1.2437749e-38
-0.2022381 -0.06347619 0.77500004 7.6562114e-39
-0.2007619 -0.06347619 0.77500004 7.7476797e-39
-0.19800001 -0.063066669 0.77000004 7.930985e-39
-0.19506668 -0.063066669 0.77000004 8.2976025e-39
-0.1691543 -0.063803814 0.77900004 1.4566939e-38
-0.15647618 -0.06347619 0.77500004 1.6779252e-38
-0.11779048 -0.063312382 0.77300006 1.5950524e-38
-0.11586667 -0.063066669 0.77000004 1.4843443e-38
-0.35541335 -0.062720001 0.78400004 7.0072336e-39
-0.27705145 -0.06256 0.78200006 6.5524016e-39
-0.27258289 -0.061070483 0.78200006 6.4612919e-39
-0.17123809 -0.059047621 0.77500004 1.7056545e-38
-0.10386286 -0.058514286 0.76800001 1.2529946e-38
-0.35301718 -0.058091432 0.78200006 5.1719796e-39
-0.19928573 -0.057571433 0.77500004 6.8300674e-39
-0.10413334 -0.0572 0.77000004 1.5119673e-38
-0.10266667 -0.0572 0.77000004 1.3270375e-38
-0.13876191 -0.056095239 0.77500004 1.6779612e-38
-0.13822477 -0.052937143 0.77200001 1.7055118e-38
-0.091800004 -0.052457143 0.76500005 1.1607988e-38
-0.36173713 -0.051466666 0.77200001 6.916117e-39
-0.15106668 -0.051333334 0.77000004 1.6871091e-38
-0.084293336 -0.046506666 0.76300001 1.6961422e-38
-0.36956763 -0.04564381 0.77300006 6.7306481e-39
-0.079409525 -0.044758096 0.75800002 1.4751944e-38
-0.07745143 -0.044462856 0.75300002 1.2812244e-38
-0.076017141 -0.044462856 0.75300002 1.0964757e-38
-0.074483812 -0.04440381 0.75200003 1.0225035e-38
-0.24786668 -0.044 0.77000004 6.6453161e-39
-0.06741143 -0.041594286 0.75300002 9.394574e-39
-0.069302864 -0.040426668 0.75800002 1.3637347e-38
-0.067859046 -0.040426668 0.75800002 1.1330328e-38
-0.066415235 -0.040426668 0.75800002 8.6559678e-39
-0.14476192 -0.039085716 0.76000005 1.6963284e-38
-0.3696 -0.038133334 0.77000004 5.9995851e-39
-0.074880004 -0.037440002 0.75600004 1.6871806e-38
-0.05729524 -0.037241906 0.75200003 5.5292169e-39
-0.37010285 -0.036571428 0.76800001 6.1832575e-39
-0.36863998 -0.036571428 0.76800001 6.0914276e-39
-0.053779051 -0.035380952 0.74300003 7.0000267e-39
-0.052363813 -0.035380952 0.74300003 5.8079716e-39
-0.050948571 -0.035380952 0.74300003 5.9934488e-39
-0.37205333 -0.033426665 0.76300001 6.2747357e-39
-0.37786669 -0.031973332 0.76300001 6.5487918e-39
-0.37641335 -0.031973332 0.76300001 6.4580395e-39
-0.37786669 -0.030520001 0.76300001 6.2743727e-39
-0.043872382 -0.029720001 0.74300003 8.5633784e-39
-0.36914667 -0.02616 0.76300001 6.0006739e-39
-0.36817905 -0.023192381 0.76100004 5.81664e-39
-0.36624765 -0.023161907 0.76000005 5.8162813e-39
-0.032638099 -0.021285716 0.74500006 5.3455571e-39
-0.15041906 -0.01986667 0.74500006 1.6871449e-38
-0.38838476 -0.018769523 0.75800002 6.5451723e-39
-0.068786673 -0.018249525 0.73700005 1.7056556e-38
-0.039733339 -0.018447619 0.74500006 1.4662732e-38
-0.038211431 -0.018398095 0.74300003 1.2263099e-38
-0.033920001 -0.018373335 0.74200004 6.7270314e-39
-0.032506671 -0.018373335 0.74200004 6.1792526e-39
-0.031093335 -0.018373335 0.74200004 6.4544074e-39
-0.074906677 -0.016960001 0.74200004 1.6872165e-38
-0.070666671 -0.016960001 0.74200004 1.6964363e-38
-0.041041907 -0.016982857 0.74300003 1.6684165e-38
-0.031302858 -0.017074287 0.74700004 6.7299194e-39
-0.041041907 -0.015567619 0.74300003 1.3279773e-38
-0.041152384 -0.014190477 0.74500006 9.8699841e-39
-0.051588573 -0.012548571 0.73200005 1.6963283e-38
-0.050194286 -0.012548571 0.73200005 1.687109e-38
-0.042457145 -0.012737143 0.74300003 1.0880173e-38
-0.37827811 -0.011550477 0.75800002 3.5938625e-39
-0.37440002 -0.01152 0.75600004 3.1354067e-39
-0.040710479 -0.011230477 0.73700005 5.1712538e-39
-0.042114288 -0.0098266676 0.73700005 7.1919626e-39
-0.040820953 -0.0098533342 0.73900002 6.3640236e-39
-0.039413337 -0.0098533342 0.73900002 6.9161296e-39
-0.042457145 -0.0084914286 0.74300003 6.272544e-39
-0.041262861 -0.0085371435 0.74700004 7.5589669e-39
-0.039893333 -0.0085485708 0.74800003 7.4682146e-39
-0.086327612 -0.0069619045 0.73100001 1.6779973e-38
-0.037645716 -0.0069714291 0.73200005 7.4685677e-39
-0.037645716 -0.0055771433 0.73200005 7.4689264e-39
-0.037241906 -0.005729524 0.75200003 7.468925e-39
-0.36864001 -0.0043200003 0.75600004 2.9510028e-39
-0.35857144 -0.0042857146 0.75000006 3.690384e-39
-0.10514286 -0.0042057144 0.73600006 1.6871088e-38
-0.04026667 -0.0043142857 0.75500005 7.4685705e-39
-0.038828574 -0.0043142857 0.75500005 7.3770909e-39
-0.36864001 -0.00288 0.75600004 3.2268653e-39
-0.041657142 -0.0027771429 0.72900003 7.3760161e-39
-0.034651432 -0.0028876192 0.75800002 7.0083014e-39
-0.3628743 -0.0014342858 0.75300002 3.2283016e-39
-0.36288002 -0.00144 0.75600004 3.1361102e-39
-0.35952765 -0.001432381 0.75200003 3.1346864e-39
-0.048533335 -0.0013866668 0.72800004 6.7288461e-39
-0.042986669 -0.0013866668 0.72800004 7.2845338e-39
-0.36288002 0 0.75600004 3.1361074e-39
-0.35952765 0 0.75200003 3.136113e-39
-0.35809526 0.001432381 0.75200003 3.136106e-39
-0.35049143 0.001424762 0.74800003 3.5034872e-39
-0.04345905 0.0014019049 0.73600006 7.2841792e-39
-0.038982857 0.0014438096 0.75800002 7.4685677e-39
-0.037984762 0.0014609525 0.76700002 7.3767308e-39
-0.032266669 0.0014666667 0.77000004 6.5462485e-39
-0.35236573 0.002864762 0.75200003 2.9510239e-39
-0.34717715 0.0028457143 0.74700004 3.1350634e-39
-0.047664765 0.0028038097 0.73600006 7.4674929e-39
-0.047960002 0.0029066666 0.76300001 7.2838205e-39
-0.046506666 0.0029066666 0.76300001 7.2841792e-39
-0.040693335 0.0029066666 0.76300001 7.3763749e-39
-0.039342858 0.0029142858 0.76500005 7.3767322e-39
-0.038034286 0.0029257142 0.76800001 7.2848939e-39
-0.35666287 0.0042971428 0.75200003 3.2279359e-39
-0.35000002 0.0042857146 0.75000006 2.8591772e-39
-0.34482861 0.004257143 0.74500006 3.230482e-39
-0.047960002 0.0043600001 0.76300001 7.2838205e-39
-0.046506666 0.0043600001 0.76300001 7.2841792e-39
-0.040586669 0.0043485714 0.76100004 7.3763749e-39
-0.038034286 0.0043885713 0.76800001 7.2848939e-39
-0.35139999 0.0057371431 0.75300002 3.0428355e-39
-0.3457143 0.0057142861 0.75000006 2.8620582e-39
-0.34107238 0.0056609525 0.74300003 2.9546224e-39
-0.047520004 0.0057600001 0.75600004 7.2838191e-39
-0.038034286 0.0058514285 0.76800001 7.2852512e-39
-0.033952381 0.0059047621 0.77500004 7.6507855e-39
-0.35950857 0.0072190473 0.75800002 3.0442649e-39
-0.34290859 0.0071142861 0.74700004 2.860259e-39
-0.34148574 0.0071142861 0.74700004 3.1364983e-39
-0.047520004 0.0072000003 0.75600004 7.1912661e-39
-0.046080001 0.0072000003 0.75600004 7.283459e-39
-0.044640001 0.0072000003 0.75600004 7.2838191e-39
-0.036761906 0.007352381 0.77200001 7.099425e-39
-0.03529143 0.007352381 0.77200001 6.9150338e-39
-0.34057146 0.008514286 0.74500006 2.7666284e-39
-0.33824193 0.0084914286 0.74300003 2.7677116e-39
-0.082285717 0.0082285721 0.72000003 1.6871446e-38
-0.051940955 0.0084228581 0.73700005 7.1919836e-39
-0.050537147 0.0084228581 0.73700005 7.0997866e-39
-0.049133338 0.0084228581 0.73700005 7.0075937e-39
-0.036428574 0.0087428577 0.76500005 6.9153897e-39
-0.34950095 0.010026667 0.75200003 2.6758425e-39
-0.34806859 0.010026667 0.75200003 2.7680353e-39
-0.34057146 0.0099333348 0.74500006 2.6747775e-39
-0.092523813 0.0096666673 0.72500002 1.6962924e-38
-0.052081905 0.0098533342 0.73900002 7.1919822e-39
-0.050674286 0.0098533342 0.73900002 7.1912633e-39
-0.049133338 0.0098266676 0.73700005 7.1912633e-39
-0.040959999 0.01024 0.76800001 7.098688e-39
-0.036523812 0.010226667 0.76700002 6.5480421e-39
-0.35712001 0.01152 0.75600004 2.3056278e-39
-0.35662094 0.011550477 0.75800002 2.2152273e-39
-0.35135999 0.01152 0.75600004 2.5836482e-39
-0.34992 0.01152 0.75600004 2.5836482e-39
-0.34194285 0.011398096 0.74800003 2.6747719e-39
-0.33546665 0.01127619 0.74000001 2.7673319e-39
-0.051377144 0.011108572 0.72900003 7.2838177e-39
-0.050674286 0.011260953 0.73900002 7.3749371e-39
-0.036666669 0.011733334 0.77000004 6.2710923e-39
-0.33541143 0.012737143 0.74300003 2.5822231e-39
-0.051165711 0.012445714 0.72600001 7.3756546e-39
-0.049782857 0.012445714 0.72600001 7.3760161e-39
-0.036809526 0.013251429 0.77300006 5.7186374e-39
-0.3391524 0.014190477 0.74500006 2.3063439e-39
-0.33773336 0.014190477 0.74500006 2.3985395e-39
-0.33541143 0.014152382 0.74300003 2.4903792e-39
-0.33264762 0.014095238 0.74000001 2.5832965e-39
-0.052548572 0.013828572 0.72600001 7.3749385e-39
-0.051165711 0.013828572 0.72600001 7.4678558e-39
-0.052182861 0.014495239 0.76100004 7.4689376e-39
-0.038232382 0.014704762 0.77200001 5.811912e-39
-0.34520382 0.015756192 0.75200003 2.1230274e-39
-0.3427943 0.015777143 0.75300002 2.2137867e-39
-0.34000003 0.015714288 0.75000006 2.2141469e-39
-0.33857146 0.015714288 0.75000006 2.2148657e-39
-0.33489528 0.015609525 0.74500006 2.3070628e-39
-0.33213335 0.015546667 0.74200004 2.4910953e-39
-0.051518098 0.015316191 0.73100001 7.8359223e-39
-0.3427943 0.01721143 0.75300002 2.1219526e-39
-0.34000003 0.017142858 0.75000006 2.0301157e-39
-0.33857146 0.017142858 0.75000006 2.0304773e-39
-0.33399621 0.016982857 0.74300003 2.1226757e-39
-0.33258098 0.016982857 0.74300003 2.2148699e-39
-0.053420953 0.017325716 0.75800002 8.2950956e-39
-0.33399621 0.018398095 0.74300003 2.3059894e-39
-0.33258098 0.018398095 0.74300003 2.3063439e-39
-0.32789335 0.018373335 0.74200004 2.1237617e-39
-0.32419047 0.018323809 0.74000001 2.3989235e-39
-0.32278097 0.018323809 0.74000001 3.0435782e-39
-0.31963432 0.018224763 0.73600006 3.3205337e-39
-0.3165029 0.018125715 0.73200005 3.5974835e-39
-0.054719999 0.018720001 0.75600004 7.6525988e-39
-0.33054477 0.019946666 0.74800003 2.2152343e-39
-0.32780004 0.01986667 0.74500006 2.1230442e-39
-0.31952953 0.019706668 0.73900002 2.7673585e-39
-0.23411812 0.019626668 0.73600006 9.2306753e-40
-0.055009525 0.020266667 0.76000005 7.4689278e-39
-0.049672384 0.020453334 0.76700002 6.916117e-39
-0.33285716 0.021428574 0.75000006 2.3066998e-39
-0.33142859 0.021428574 0.75000006 2.3067082e-39
-0.32868001 0.021342859 0.74700004 2.2148727e-39
-0.32550478 0.021228572 0.74300003 2.3992626e-39
-0.23539048 0.021142857 0.74000001 9.227186e-40
-0.2327162 0.021028573 0.73600006 1.4741015e-39
-0.059462857 0.020742858 0.72600001 7.2845408e-39
-0.055081908 0.021742858 0.76100004 7.3763763e-39
-0.050866667 0.021799998 0.76300001 6.9161128e-39
-0.049737141 0.021942858 0.76800001 7.0997838e-39
-0.33285716 0.022857144 0.75000006 2.306697e-39
-0.33000001 0.022857144 0.75000006 2.3981794e-39
-0.32725716 0.022765715 0.74700004 2.4910925e-39
-0.32496193 0.022704763 0.74500006 2.5829322e-39
-0.31952953 0.022521906 0.73900002 2.7658969e-39
-0.31812191 0.022521906 0.73900002 2.5836665e-39
-0.23761715 0.022765715 0.74700004 9.2306052e-40
-0.23492953 0.02264381 0.74300003 1.3825953e-39
-0.2313143 0.022430478 0.73600006 1.9350643e-39
-0.059462857 0.022125714 0.72600001 7.3763777e-39
-0.056085717 0.023009526 0.75500005 7.376735e-39
-0.054647624 0.023009526 0.75500005 7.2841806e-39
-0.049089525 0.023100954 0.75800002 7.283452e-39
-0.33562288 0.024382858 0.75300002 2.3981682e-39
-0.32769525 0.024220953 0.74800003 2.3981766e-39
-0.32583427 0.024188573 0.74700004 2.490375e-39
-0.3226743 0.024059048 0.74300003 2.3985451e-39
-0.32082668 0.024026668 0.74200004 2.3985465e-39
-0.31812191 0.023929525 0.73900002 2.4903848e-39
-0.23793525 0.024220953 0.74800003 9.2340244e-40
-0.2361943 0.024188573 0.74700004 1.0145065e-39
-0.23477143 0.024188573 0.74700004 1.1052938e-39
-0.23022479 0.023864765 0.73700005 2.3074355e-39
-0.22788954 0.02376762 0.73400003 3.5091989e-39
-0.33562288 0.025817145 0.75300002 2.5811203e-39
-0.32857147 0.025714288 0.75000006 2.3967403e-39
-0.32627049 0.025645716 0.74800003 2.398178e-39
-0.32354289 0.025542859 0.74500006 2.2145098e-39
-0.32125905 0.025474286 0.74300003 2.1226757e-39
-0.3198438 0.025474286 0.74300003 2.3063495e-39
-0.2448362 0.025474286 0.74300003 1.47983e-39
-0.24407622 0.025542859 0.74500006 1.3879931e-39
-0.2357143 0.025714288 0.75000006 3.7204754e-40
-0.23428573 0.025714288 0.75000006 1.5670076e-39
-0.22726859 0.025097143 0.73200005 2.768408e-39
-0.33552003 0.02736 0.75600004 2.8566296e-39
-0.33408001 0.02736 0.75600004 2.6729628e-39
-0.33132002 0.027251428 0.75300002 2.581486e-39
-0.32801524 0.027215241 0.75200003 2.3063383e-39
-0.32658288 0.027215241 0.75200003 2.2145042e-39
-0.3137143 0.02649143 0.73200005 2.491454e-39
-0.30771619 0.026455238 0.73100001 2.7659123e-39
-0.23092 0.027251428 0.75300002 4.2438814e-39
-0.33862668 0.029066667 0.76300001 3.1324934e-39
-0.33717334 0.029066667 0.76300001 2.9495413e-39
-0.33352003 0.028876189 0.75800002 2.7651556e-39
-0.3312 0.028800001 0.75600004 2.4892946e-39
-0.32932386 0.028761907 0.75500005 2.2145042e-39
-0.32788575 0.028761907 0.75500005 2.2145028e-39
-0.32644764 0.028761907 0.75500005 2.214507e-39
-0.30506667 0.027733335 0.72800004 2.4904002e-39
-0.23092 0.028685715 0.75300002 3.8743787e-39
-0.074800007 0.0272 0.71400005 1.1986159e-38
-0.06869334 0.028038098 0.73600006 7.5604074e-39
-0.33862668 0.030520001 0.76300001 3.5030626e-39
-0.29608572 0.030297145 0.72300005 2.7695137e-39
-0.29470861 0.030297145 0.72300005 3.3219742e-39
-0.22138858 0.030632382 0.73100001 4.4261105e-39
-0.20381714 0.030297145 0.72300005 3.9684282e-39
-0.057752378 0.031763811 0.75800002 7.0075923e-39
-0.29470861 0.031674288 0.72300005 2.8588394e-39
-0.24774097 0.032375239 0.73900002 1.3876386e-39
-0.24766669 0.032550476 0.74300003 1.4794699e-39
-0.24757716 0.032725718 0.74700004 1.4801846e-39
-0.23100951 0.033207618 0.75800002 2.860947e-39
-0.075200006 0.030885715 0.70500004 8.1106623e-39
-0.29211429 0.032914288 0.72000003 2.5826057e-39
-0.2494857 0.033828571 0.74000001 1.5716683e-39
-0.20774859 0.03346286 0.73200005 3.9601115e-39
-0.076480001 0.032777142 0.71700001 6.9146764e-39
-0.29178286 0.034571428 0.72600001 2.8595485e-39
-0.25016004 0.035333335 0.74200004 1.663864e-39
-0.23047429 0.036238097 0.76100004 2.4006933e-39
-0.075733334 0.033809524 0.71000004 7.2831241e-39
-0.065100953 0.035380952 0.74300003 7.5604046e-39
-0.063685715 0.035380952 0.74300003 7.3756546e-39
-0.063024767 0.035809524 0.75200003 7.1912647e-39
-0.29178286 0.035954285 0.72600001 2.0305081e-39
-0.28999999 0.035904761 0.72500002 2.4904115e-39
-0.24987811 0.03649905 0.73700005 1.7560596e-39
-0.23108 0.03778667 0.76300001 1.6613374e-39
-0.20973523 0.036598098 0.73900002 4.4239469e-39
-0.076159999 0.035360001 0.71400005 7.6515338e-39
-0.061683815 0.036449526 0.73600006 7.0994292e-39
-0.061920006 0.037440002 0.75600004 7.0072308e-39
-0.060480006 0.037440002 0.75600004 6.7317201e-39
-0.057600003 0.037440002 0.75600004 5.9966648e-39
-0.056160003 0.037440002 0.75600004 5.5328196e-39
-0.29657716 0.037594285 0.73100001 1.9375754e-39
-0.28901717 0.037337143 0.72600001 2.5818896e-39
-0.28723809 0.037285715 0.72500002 3.0414412e-39
-0.28133714 0.036874287 0.71700001 3.691114e-39
-0.2505562 0.038005717 0.73900002 1.756061e-39
-0.23605716 0.039342858 0.76500005 6.4610649e-40
-0.23460001 0.039342858 0.76500005 8.2942296e-40
-0.21670477 0.037748571 0.73400003 4.3331988e-39
-0.1955543 0.03718286 0.72300005 5.4381423e-39
-0.19337143 0.037028573 0.72000003 5.4363304e-39
-0.192 0.037028573 0.72000003 5.9923474e-39
-0.076868571 0.036411427 0.708 7.7440854e-39
-0.076159999 0.036720004 0.71400005 7.6518842e-39
-0.075009525 0.036822859 0.71600002 7.559327e-39
-0.061683815 0.03785143 0.73600006 7.0068763e-39
-0.059040003 0.038880002 0.75600004 6.18034e-39
-0.29657716 0.038986668 0.73100001 1.6617018e-39
-0.29160002 0.038880002 0.72900003 2.1216093e-39
-0.28901717 0.038720001 0.72600001 2.2138148e-39
-0.28723809 0.038666669 0.72500002 2.3978557e-39
-0.28388572 0.038399998 0.72000003 2.6730119e-39
-0.28212193 0.038346671 0.71900004 2.4893479e-39
-0.25128192 0.03930667 0.73700005 1.9397362e-39
-0.23897144 0.040800005 0.76500005 7.3937692e-40
-0.20189714 0.038720001 0.72600001 3.3125953e-39
-0.18877526 0.038026668 0.71300006 6.3590013e-39
-0.28212193 0.039716192 0.71900004 2.3978599e-39
-0.25374475 0.04065524 0.73600006 1.9400977e-39
-0.23980001 0.042146668 0.76300001 9.2341505e-40
-0.21114287 0.040820953 0.73900002 4.8881578e-39
-0.19221714 0.040102858 0.72600001 5.8994483e-39
-0.19083428 0.040102858 0.72600001 5.4406296e-39
-0.25408953 0.042114288 0.73700005 1.9404523e-39
-0.24416001 0.043599997 0.76300001 1.2950716e-39
-0.24270667 0.043599997 0.76300001 1.3851093e-39
-0.21427621 0.042571433 0.74500006 4.8860068e-39
-0.21285716 0.042571433 0.74500006 4.8874418e-39
-0.21087047 0.042457145 0.74300003 4.8867187e-39
-0.20945525 0.042457145 0.74300003 4.2435059e-39
-0.081257142 0.040628571 0.71100003 7.5593466e-39
-0.079902858 0.040628571 0.71100003 7.927399e-39
-0.078548573 0.040628571 0.71100003 7.6522457e-39
-0.27723998 0.042337146 0.71700001 1.2911382e-39
-0.27587429 0.042337146 0.71700001 1.6620535e-39
-0.21656382 0.044167623 0.74800003 4.3339163e-39
-0.2063143 0.044108573 0.74700004 2.0247305e-39
-0.18945143 0.042868573 0.72600001 5.4391876e-39
-0.18591429 0.042691432 0.72300005 5.4416861e-39
-0.18453714 0.042691432 0.72300005 5.0725379e-39
-0.08160001 0.042160001 0.71400005 7.6518912e-39
-0.078880005 0.042160001 0.71400005 7.6518828e-39
-0.27801335 0.043824762 0.71900004 2.4896618e-39
-0.24754287 0.046323813 0.76000005 1.5691502e-39
-0.24641907 0.046384763 0.76100004 1.5695089e-39
-0.21656382 0.045592383 0.74800003 4.0584042e-39
-0.20718098 0.045409527 0.74500006 3.2203913e-39
-0.20576192 0.045409527 0.74500006 2.2995098e-39
-0.2018743 0.044860955 0.73600006 1.8410343e-39
-0.18997334 0.044373337 0.72800004 5.0707596e-39
-0.17986669 0.043276191 0.71000004 3.8707969e-39
-0.082430474 0.042544764 0.69800001 7.0076064e-39
-0.078880005 0.043520004 0.71400005 7.5600473e-39
-0.070817143 0.044434287 0.72900003 7.3756546e-39
-0.27956003 0.045445714 0.72300005 2.3067068e-39
-0.27702856 0.045257144 0.72000003 2.398185e-39
-0.21428573 0.04714286 0.75000006 4.3324813e-39
-0.20714287 0.04714286 0.75000006 2.6664832e-39
-0.17580953 0.044628572 0.71000004 3.7872221e-39
-0.082430474 0.043874286 0.69800001 7.2845534e-39
-0.080095246 0.045571432 0.72500002 7.6518828e-39
-0.076266669 0.045760002 0.72800004 7.6518968e-39
-0.075291432 0.046011433 0.73200005 7.836295e-39
-0.074099049 0.046137143 0.73400003 8.0210268e-39
-0.072205715 0.045822859 0.72900003 7.6511583e-39
-0.070817143 0.045822859 0.72900003 7.2823814e-39
-0.070190482 0.046325717 0.73700005 7.1909046e-39
-0.068786673 0.046325717 0.73700005 7.0990649e-39
-0.28072 0.047017142 0.72600001 2.1223156e-39
-0.27390477 0.046563812 0.71900004 2.4900205e-39
-0.27291429 0.046628572 0.72000003 2.6726139e-39
-0.24833524 0.049089525 0.75800002 1.6624136e-39
-0.21370858 0.048765715 0.75300002 4.0559071e-39
-0.21227428 0.048765715 0.75300002 4.2424577e-39
-0.21084 0.048765715 0.75300002 4.5179432e-39
-0.20940572 0.048765715 0.75300002 3.7832382e-39
-0.20714287 0.04857143 0.75000006 3.1317661e-39
-0.18581335 0.047146667 0.72800004 4.2442206e-39
-0.17940763 0.046563812 0.71900004 2.9135517e-40
-0.17803811 0.046563812 0.71900004 3.0471684e-39
-0.087040007 0.046240002 0.71400005 6.7320901e-39
-0.075291432 0.04740572 0.73200005 7.6526142e-39
-0.07430096 0.047664765 0.73600006 7.5596913e-39
-0.072403811 0.047340952 0.73100001 7.3749329e-39
-0.070190482 0.047729529 0.73700005 7.0990677e-39
-0.28072 0.0484 0.72600001 2.0301171e-39
-0.27405146 0.048200004 0.72300005 3.0403062e-39
-0.24833524 0.050533336 0.75800002 1.4773021e-39
-0.21312001 0.0504 0.75600004 3.8718759e-39
-0.21168001 0.0504 0.75600004 4.2399186e-39
-0.21024001 0.0504 0.75600004 4.1480663e-39
-0.20269714 0.04926667 0.73900002 2.8523164e-39
-0.17940763 0.047933336 0.71900004 1.4780602e-39
-0.17803811 0.047933336 0.71900004 3.3176652e-39
-0.17519429 0.047533337 0.71300006 5.2569628e-39
-0.075291432 0.048800007 0.73200005 7.4678586e-39
-0.07188572 0.04933333 0.74000001 7.0072308e-39
-0.070761904 0.049533334 0.74300003 6.8235598e-39
-0.17828572 0.049371433 0.72000003 3.5884914e-39
-0.17666858 0.049302857 0.71900004 4.606211e-39
-0.078714289 0.049714286 0.72500002 8.3869241e-39
-0.07188572 0.050742857 0.74000001 6.9153939e-39
-0.24912001 0.053280003 0.75600004 1.3851135e-39
-0.20210667 0.052293338 0.74200004 2.6722285e-39
-0.18315049 0.051729526 0.73400003 2.0279732e-39
-0.17828572 0.050742861 0.72000003 2.48645e-39
-0.17666858 0.050672382 0.71900004 3.0371028e-39
-0.17310476 0.050038096 0.71000004 4.8928256e-39
-0.079763815 0.050883815 0.72200006 7.8362698e-39
-0.079040006 0.051306669 0.72800004 8.0206569e-39
-0.077760004 0.051377144 0.72900003 7.6518785e-39
-0.069533341 0.052504767 0.74500006 5.9048293e-39
-0.27594668 0.052693337 0.72800004 2.4892974e-39
-0.25581333 0.053706668 0.74200004 1.5713096e-39
-0.19232193 0.053344768 0.73700005 8.2941034e-40
-0.17666858 0.052041911 0.71900004 1.4744476e-39
-0.17310476 0.05139048 0.71000004 4.2485183e-39
-0.089460954 0.050739046 0.70100003 7.926669e-39
-0.07990858 0.053272385 0.73600006 7.744077e-39
-0.27708378 0.054302856 0.73100001 2.2137881e-39
-0.25757337 0.055194288 0.74300003 1.5716641e-39
-0.19425143 0.054897144 0.73900002 1.4744168e-39
-0.080426671 0.054080002 0.72800004 7.5604228e-39
-0.079691432 0.054525718 0.73400003 7.4678572e-39
-0.27708378 0.055695236 0.73100001 2.0297584e-39
-0.27040002 0.055466671 0.72800004 1.8453587e-39
-0.26181716 0.056304764 0.73900002 1.5720285e-39
-0.26076192 0.056380954 0.74000001 1.5720285e-39
-0.19645335 0.056533337 0.74200004 2.9495343e-39
-0.19241144 0.055771433 0.73200005 2.3967164e-39
-0.17005715 0.054857146 0.72000003 5.4381114e-39
-0.091184773 0.053638097 0.70400006 7.7448029e-39
-0.089843817 0.053638097 0.70400006 7.6526044e-39
-0.080868572 0.055771433 0.73200005 7.468216e-39
-0.079474293 0.055771433 0.73200005 7.2834632e-39
-0.072371431 0.056761909 0.74500006 5.5342559e-39
-0.18683429 0.05716572 0.73200005 1.5658922e-39
-0.16499048 0.055447619 0.71000004 5.2555208e-39
-0.094396196 0.054510474 0.69800001 7.2766374e-39
-0.093051434 0.055291429 0.708 7.9288354e-39
-0.091702856 0.055291429 0.708 7.7447986e-39
-0.090737142 0.055525716 0.71100003 7.6529589e-39
-0.078613341 0.057556197 0.73700005 7.0990705e-39
-0.16432954 0.057040006 0.71300006 5.7143368e-39
-0.16093335 0.056800004 0.71000004 7.0068623e-39
-0.15890667 0.056559999 0.70700002 7.0997866e-39
-0.095588572 0.055760004 0.69700003 7.7433413e-39
-0.091702856 0.056639999 0.708 7.8366327e-39
-0.08113905 0.057760004 0.72200006 7.3760119e-39
-0.079146668 0.059360001 0.74200004 7.0994264e-39
-0.27196956 0.06028191 0.73600006 1.8460902e-39
-0.27056763 0.06028191 0.73600006 1.7531799e-39
-0.17190477 0.059135243 0.72200006 5.808647e-39
-0.16502096 0.05864381 0.71600002 5.7118229e-39
-0.16297144 0.058398098 0.71300006 6.0852633e-39
-0.15958096 0.058152385 0.71000004 6.7310055e-39
-0.15756001 0.057906669 0.70700002 7.0065105e-39
-0.096916191 0.057087619 0.69700003 7.2741543e-39
-0.082514293 0.059135243 0.72200006 7.3760105e-39
-0.082150482 0.059872381 0.73100001 7.2831002e-39
-0.079691432 0.060118094 0.73400003 7.0994278e-39
-0.079146668 0.060773335 0.74200004 6.7320816e-39
-0.077733338 0.060773335 0.74200004 6.4565639e-39
-0.2741867 0.06218667 0.74200004 1.9382802e-39
-0.17190477 0.060510483 0.72200006 4.5200858e-39
-0.17147429 0.060845714 0.72600001 4.6108563e-39
-0.16938859 0.06059429 0.72300005 4.7019827e-39
-0.16594286 0.060342856 0.72000003 5.7136179e-39
-0.16365716 0.060007621 0.71600002 5.8072499e-39
-0.16229333 0.060007621 0.71600002 5.9945152e-39
-0.16025525 0.059756193 0.71300006 6.3640166e-39
-0.15889715 0.059756193 0.71300006 6.8224766e-39
-0.091702856 0.059337143 0.708 7.5607647e-39
-0.085264765 0.060510483 0.72200006 8.0192345e-39
-0.084354281 0.060845714 0.72600001 7.3753015e-39
-0.083542861 0.061264765 0.73100001 7.2823814e-39
-0.081420958 0.061767623 0.73700005 7.0994292e-39
-0.080234289 0.061935242 0.73900002 7.0075881e-39
-0.17265522 0.06265714 0.73100001 4.5190138e-39
-0.17009144 0.062228575 0.72600001 4.8885194e-39
-0.16870856 0.062228575 0.72600001 5.5317392e-39
-0.16663431 0.061971433 0.72300005 6.1749506e-39
-0.16525716 0.061971433 0.72300005 6.0831207e-39
-0.16388001 0.061971433 0.72300005 6.084557e-39
-0.16250286 0.061971433 0.72300005 6.1771114e-39
-0.15889715 0.061114289 0.71300006 6.3615013e-39
-0.086760007 0.061971433 0.72300005 8.1121336e-39
-0.084586665 0.062400002 0.72800004 7.2820254e-39
-0.083657146 0.062742859 0.73200005 7.1901871e-39
-0.08248762 0.06291429 0.73400003 7.0983516e-39
-0.081641905 0.063342862 0.73900002 6.8224864e-39
-0.080342859 0.063428566 0.74000001 6.6388084e-39
-0.17547621 0.06457524 0.73700005 3.6867546e-39
-0.17336382 0.064312384 0.73400003 4.4271755e-39
-0.17196572 0.064312384 0.73400003 5.1640245e-39
-0.16940571 0.063874289 0.72900003 5.898721e-39
-0.16801715 0.063874289 0.72900003 6.7256034e-39
-0.16250286 0.063348576 0.72300005 5.9934334e-39
-0.093445718 0.062297143 0.71100003 7.6522401e-39
-0.090992384 0.062472388 0.71300006 7.7440784e-39
-0.088015243 0.063260958 0.72200006 7.7447916e-39
-0.084702857 0.063874289 0.72900003 7.1905473e-39
-0.083657146 0.064137146 0.73200005 7.098709e-39
-0.082824767 0.06457524 0.73700005 7.0068693e-39
-0.26215619 0.066963814 0.74800003 1.8457231e-39
-0.17056763 0.065710478 0.73400003 5.8072443e-39
-0.14666668 0.062666669 0.70000005 6.7306467e-39
-0.1449181 0.062487617 0.69800001 6.6384553e-39
-0.14338286 0.062398098 0.69700003 6.3615167e-39
-0.093733333 0.062935241 0.70300001 7.6522415e-39
-0.090388574 0.064367622 0.71900004 7.652973e-39
-0.088380955 0.064904764 0.72500002 7.4682118e-39
-0.085973337 0.065173343 0.72800004 7.1909074e-39
-0.084935233 0.065441899 0.73100001 7.0072336e-39
-0.084228575 0.065979056 0.73700005 6.9150366e-39
-0.26961908 0.068114288 0.74500006 2.0286696e-39
-0.26820001 0.068114288 0.74500006 1.6609759e-39
-0.17666668 0.067840002 0.74200004 4.4268196e-39
-0.14678667 0.06464 0.70700002 6.3622257e-39
-0.090388574 0.065737143 0.71900004 7.6533247e-39
-0.089142859 0.065828577 0.72000003 7.3767364e-39
-0.088380955 0.066285722 0.72500002 7.2838177e-39
-0.087840006 0.066925719 0.73200005 7.1905459e-39
-0.086445719 0.066925719 0.73200005 7.0072336e-39
-0.085516199 0.067291431 0.73600006 6.9153939e-39
-0.16151619 0.068226665 0.73100001 5.9001602e-39
-0.086918101 0.06869334 0.73600006 6.9153953e-39
-0.085632391 0.068786673 0.73700005 6.8235542e-39
-0.17337143 0.070476189 0.74000001 4.611215e-39
-0.14939049 0.067904763 0.71300006 5.7168563e-39
-0.14761715 0.067714289 0.71100003 5.4417072e-39
-0.10428 0.066 0.69300002 6.6402742e-39
-0.089721911 0.070095241 0.73600006 7.0994236e-39
-0.087840006 0.069714293 0.73200005 6.9153925e-39
-0.086918101 0.070095241 0.73600006 6.8239157e-39
-0.16173714 0.07110858 0.73200005 5.8987224e-39
-0.15359999 0.069942862 0.72000003 5.9909223e-39
-0.15222858 0.069942862 0.72000003 5.8994455e-39
-0.14960001 0.069360003 0.71400005 5.80761e-39
-0.090133339 0.070720002 0.72800004 7.1912577e-39
-0.087840006 0.07110858 0.73200005 6.9153911e-39
-0.16564953 0.072998099 0.73700005 5.0718414e-39
-0.16402286 0.072899051 0.73600006 5.5310203e-39
-0.16262096 0.072899051 0.73600006 5.7146927e-39
-0.15488 0.071908571 0.72600001 5.8980008e-39
-0.15349714 0.071908571 0.72600001 5.8987281e-39
-0.14960001 0.070720002 0.71400005 5.8998141e-39
-0.14824 0.070720002 0.71400005 5.9909195e-39
-0.14667429 0.070620961 0.71300006 5.8987126e-39
-0.088080004 0.072700955 0.73400003 7.0072238e-39
-0.16284192 0.074401908 0.73700005 5.4381114e-39
-0.16121906 0.07430096 0.73600006 5.6235873e-39
-0.15894859 0.073897146 0.73200005 5.715434e-39
-0.15755428 0.073897146 0.73200005 5.80761e-39
-0.15488 0.073291428 0.72600001 5.8065156e-39
-0.15286286 0.072988577 0.72300005 5.8983693e-39
-0.15085715 0.072685711 0.72000003 5.9905832e-39
-0.14948572 0.072685711 0.72000003 6.1745905e-39
-0.14811429 0.072685711 0.72000003 5.7150318e-39
-0.13216572 0.069354288 0.68700004 5.9930747e-39
-0.13390477 0.070969522 0.70300001 5.7168507e-39
-0.132 0.070666671 0.70000005 5.3491346e-39
-0.12898667 0.069758095 0.69100004 5.531714e-39
-0.10645715 0.069657147 0.69000006 7.4689096e-39
-0.10560001 0.069959998 0.69300002 7.7440882e-39
-0.095600002 0.072382852 0.71700001 7.5600416e-39
-0.09423428 0.072382852 0.71700001 7.3763693e-39
-0.093289524 0.07379619 0.73100001 7.2838163e-39
-0.15938286 0.075497143 0.73400003 5.5328294e-39
-0.15755428 0.075291432 0.73200005 5.7150529e-39
-0.15552001 0.074982859 0.72900003 5.8068771e-39
-0.15148573 0.07436572 0.72300005 6.084557e-39
-0.14873144 0.07436572 0.72300005 5.6232047e-39
-0.1352438 0.072308578 0.70300001 5.9937963e-39
-0.132 0.072000004 0.70000005 6.1767415e-39
-0.12973335 0.071485721 0.69500005 6.2674896e-39
-0.12822476 0.071382858 0.69400001 6.4526053e-39
-0.095866673 0.073954292 0.71900004 7.5607605e-39
-0.094497152 0.073954292 0.71900004 7.3760105e-39
-0.15594667 0.076580957 0.73100001 5.4391792e-39
-0.15392001 0.076266669 0.72800004 5.6239278e-39
-0.15211429 0.076057144 0.72600001 5.8086778e-39
-0.13029332 0.073123805 0.69800001 6.3614929e-39
-0.12877905 0.07301905 0.69700003 6.5444478e-39
-0.095866673 0.075323813 0.71900004 7.468209e-39
-0.094497152 0.075323813 0.71900004 7.3760105e-39
-0.094034284 0.076057144 0.72600001 7.191978e-39
-0.090628572 0.076685719 0.73200005 6.3647242e-39
-0.15316191 0.077973336 0.73100001 5.5331671e-39
-0.14381714 0.077440001 0.72600001 5.9001756e-39
-0.13122666 0.074986666 0.70300001 6.4540472e-39
-0.12933333 0.074666671 0.70000005 6.7291964e-39
-0.12708572 0.074133337 0.69500005 6.8206759e-39
-0.095285714 0.077333339 0.72500002 7.4674859e-39
-0.15176952 0.079365715 0.73100001 5.3487773e-39
-0.15037714 0.079365715 0.73100001 5.6239278e-39
-0.12988763 0.076325715 0.70300001 6.6377224e-39
-0.12800001 0.076000005 0.70000005 6.7299208e-39
-0.12612382 0.075674288 0.69700003 6.8221179e-39
-0.12407999 0.075240001 0.69300002 6.9146736e-39
-0.10730286 0.074588574 0.68700004 7.7440826e-39
-0.10599429 0.074588574 0.68700004 7.8369929e-39
-0.10000001 0.076000005 0.70000005 8.019945e-39
-0.097371429 0.078171432 0.72000003 7.4678488e-39
-0.12533334 0.077333339 0.70000005 6.9146722e-39
-0.12276001 0.076559998 0.69300002 7.0065105e-39
-0.11024 0.076118097 0.68900001 7.5600459e-39
-0.10956 0.076559998 0.69300002 7.8355537e-39
-0.10205714 0.077885717 0.70500004 7.8366313e-39
-0.09303429 0.080537148 0.72900003 6.5483952e-39
-0.14759238 0.082150482 0.73100001 5.6224915e-39
-0.12400001 0.078666672 0.70000005 6.9150338e-39
-0.10234667 0.079453334 0.70700002 7.8362726e-39
-0.13947619 0.082857139 0.72500002 5.8068898e-39
-0.13809523 0.082857139 0.72500002 5.8987281e-39
-0.12284191 0.08011429 0.70100003 6.9146736e-39
-0.12012 0.0792 0.69300002 7.0061504e-39
-0.097066671 0.083200008 0.72800004 7.099425e-39
-0.14163429 0.084702857 0.72900003 5.8072415e-39
-0.14024572 0.084702857 0.72900003 5.623216e-39
-0.13866667 0.084586665 0.72800004 5.8068926e-39
-0.13407429 0.082611434 0.71100003 5.9902062e-39
-0.13136572 0.082611434 0.71100003 6.4529738e-39
-0.10249142 0.082262859 0.708 7.7440826e-39
-0.13552 0.085737146 0.72600001 6.0845528e-39
-0.10383999 0.083611429 0.708 7.9277522e-39
-0.10278096 0.083847627 0.71000004 7.8359153e-39
-0.099428572 0.085619047 0.72500002 7.3760133e-39
-0.098182857 0.085737146 0.72600001 7.1916179e-39
-0.13552 0.087119997 0.72600001 5.6235789e-39
-0.13395239 0.087000005 0.72500002 5.807973e-39
-0.11632761 0.083279997 0.69400001 6.9139478e-39
-0.10638667 0.08484 0.70700002 7.7440826e-39
-0.10518857 0.084959999 0.708 7.7440826e-39
-0.10457334 0.085560001 0.71300006 7.8359153e-39
-0.10039239 0.086640008 0.72200006 7.4674887e-39
-0.13552 0.088502854 0.72600001 5.2565928e-39
-0.13395239 0.088380955 0.72500002 5.440268e-39
-0.13220572 0.08813715 0.72300005 5.440631e-39
-0.12712382 0.086552382 0.71000004 5.6246565e-39
-0.12577143 0.086552382 0.71000004 5.9015979e-39
-0.12441906 0.086552382 0.71000004 6.2703762e-39
-0.11500572 0.084601901 0.69400001 6.8221193e-39
-0.11152001 0.084967621 0.69700003 7.0990677e-39
-0.10653714 0.086308569 0.708 7.7440812e-39
-0.12648001 0.088400006 0.71400005 5.9012378e-39
-0.12512 0.088400006 0.71400005 6.1781806e-39
-0.1151581 0.087038092 0.70300001 6.8221249e-39
-0.11216 0.08679048 0.70100003 7.0068763e-39
-0.10864763 0.0882762 0.71300006 7.6522429e-39
-0.10176763 0.089390486 0.72200006 7.2848897e-39
-0.12736572 0.090388574 0.71900004 5.9012336e-39
-0.12599619 0.090388574 0.71900004 6.0859864e-39
-0.1151581 0.08837714 0.70300001 6.822478e-39
-0.1099581 0.088502862 0.70400006 7.2841778e-39
-0.10819048 0.089257143 0.71000004 7.5604074e-39
-0.1068381 0.089257143 0.71000004 7.7437239e-39
-0.10548572 0.089257143 0.71000004 7.6515338e-39
-0.12754285 0.091885716 0.72000003 5.5342475e-39
-0.12512 0.091120005 0.71400005 5.7179269e-39
-0.12358667 0.090992384 0.71300006 5.9016147e-39
-0.12171429 0.090609528 0.71000004 6.1771394e-39
-0.10773333 0.090226665 0.70700002 7.5600501e-39
-0.12188762 0.093127623 0.71900004 6.2693112e-39
-0.11968001 0.092480004 0.71400005 6.454413e-39
-0.11832 0.092480004 0.71400005 6.7299194e-39
-0.1167962 0.092350483 0.71300006 6.8221151e-39
-0.1154381 0.092350483 0.71300006 6.9143121e-39
-0.10954286 0.091961905 0.71000004 7.1916277e-39
-0.10472 0.092480004 0.71400005 7.5593284e-39
-0.10422857 0.093257144 0.72000003 7.10086e-39
-0.12188762 0.094497152 0.71900004 5.8104841e-39
-0.1205181 0.094497152 0.71900004 6.0856346e-39
-0.10834286 0.093445718 0.71100003 7.3752987e-39
-0.12068571 0.096000001 0.72000003 5.6242978e-39
-0.11914858 0.095866673 0.71900004 5.9934334e-39
-0.10652572 0.095600002 0.71700001 7.1926983e-39
-0.11335429 0.099697143 0.71700001 5.3487955e-39
-0.11062285 0.099697143 0.71700001 6.3614999e-39
