# .PCD v0.7 - Point Cloud Data file format
VERSION 0.7
FIELDS x y z rgba
SIZE 4 4 4 4
TYPE F F F U
COUNT 1 1 1 1
WIDTH 907
HEIGHT 1
VIEWPOINT 0 0 0 1 0 0 0
POINTS 907
DATA ascii
-0.13189429 0.059057143 0.68900001 11908534
-0.12533237 0.059057143 0.68900007 13026252
-0.11438931 0.058352523 0.6878463 12039607
-0.10751925 0.059005715 0.68840009 11908533
-0.13224263 0.063739762 0.68825006 7699585
-0.12493127 0.064482607 0.68781358 9343906
-0.11476562 0.064550512 0.68467885 12040123
-0.10739239 0.064152002 0.6861946 10790056
-0.12128039 0.071511239 0.68760008 4672342
-0.11438291 0.073959909 0.68573815 6185065
-0.10800806 0.07250946 0.68446159 5657175
-0.11417715 0.080055237 0.68900001 4999756
-0.087748572 0.038556192 0.69800001 11909312
-0.15023619 0.048527621 0.69800001 11251904
-0.14441524 0.047454767 0.69770837 15593972
-0.13512272 0.046122048 0.69685024 14078159
-0.12498966 0.047155622 0.6961 12236988
-0.1148131 0.046642799 0.69534379 12039606
-0.10519424 0.046106577 0.69592863 11973816
-0.094668388 0.045471679 0.69656867 11381936
-0.086837687 0.044371933 0.69765222 6842223
-0.15070787 0.052672856 0.69787502 8753321
-0.14456615 0.05460884 0.69551998 9606569
-0.13510631 0.054697838 0.69277203 13619673
-0.12501562 0.053908616 0.69201982 13026244
-0.11525881 0.053659156 0.69172943 12039605
-0.10482394 0.054186091 0.69184256 11908279
-0.097025238 0.054402005 0.69345957 8619145
-0.14383648 0.061589122 0.69642866 4539217
-0.13477877 0.06312798 0.69047642 4869735
-0.12725002 0.069379047 0.69050002 3882309
-0.10278179 0.065381251 0.69293761 6184036
-0.097764246 0.06431438 0.69647831 5461337
-0.13029332 0.073123805 0.69800001 4539713
-0.12443075 0.073989123 0.69247621 4868168
-0.11622117 0.077776939 0.69077784 5065809
-0.10509366 0.073787212 0.69695848 5460823
-0.099176511 0.07194794 0.69733334 5526358
-0.11390767 0.082428493 0.69260883 4934477
-0.10889634 0.082194835 0.69599998 5395285
-0.14160001 0.029668573 0.70800006 12105403
-0.13755429 0.029668573 0.70800006 12105146
-0.12204571 0.029668571 0.708 12039865
-0.11513428 0.029499998 0.70800006 11973817
-0.10788571 0.029668573 0.70800006 12039610
-0.092266247 0.027484443 0.70772231 11974073
-0.08551506 0.027555484 0.7076298 11974074
-0.077978566 0.028799763 0.70737505 10659239
-0.18124801 0.038029712 0.708 7567511
-0.17459038 0.036569577 0.70770979 11645624
-0.16505358 0.036066569 0.70722526 14409444
-0.15493371 0.035562318 0.70636976 15855849
-0.14471859 0.03503463 0.70589805 12828349
-0.13500965 0.034971211 0.70576447 12105145
-0.12511133 0.035043176 0.7050786 12105146
-0.11513803 0.034741551 0.70476931 12039865
-0.10504293 0.035083812 0.70390368 12039354
-0.094966054 0.034712322 0.70376486 11973816
-0.084934227 0.0349227 0.70422649 10724776
-0.078008689 0.033709757 0.70612502 6512998
-0.17348132 0.043554876 0.70696563 6384254
-0.16487375 0.044902671 0.70371425 9080475
-0.15514307 0.044607796 0.70148164 13488343
-0.14550754 0.04245409 0.70157123 15921389
-0.13438557 0.041305669 0.70073688 12368057
-0.12510562 0.042030338 0.70161289 12236731
-0.11514718 0.041888863 0.70073074 12039609
-0.10461675 0.041003503 0.70036846 12039354
-0.095480882 0.040642601 0.70063639 11973817
-0.08578191 0.040684193 0.7026 8486278
-0.17126857 0.051245712 0.708 5064245
-0.16425608 0.052583806 0.70683342 4276556
-0.15529548 0.054716025 0.70211768 5592932
-0.14933334 0.058666673 0.70000005 4933454
-0.093130253 0.055271208 0.70280963 5460823
-0.089673661 0.052200001 0.7026667 5526104
-0.15305096 0.060150001 0.70175004 4343372
-0.14405647 0.065498449 0.70627278 4407878
-0.13890286 0.066754289 0.708 3225658
-0.094751433 0.06182953 0.70187497 5461080
-0.14186549 0.071761757 0.70776933 4341828
-0.13483533 0.075086482 0.70605719 4211522
-0.12732209 0.077488773 0.70139998 4802632
-0.10491984 0.077039257 0.70152169 5592408
-0.13081144 0.083611429 0.708 4407364
-0.12488184 0.08402814 0.70596766 4539975
-0.11557244 0.087679759 0.70500004 4868428
-0.10616969 0.083589092 0.70388472 5460824
-0.12002286 0.090354286 0.708 4605009
-0.11412635 0.090761058 0.70766664 4868684
-0.10840666 0.090226665 0.70700002 5263703
-0.071899995 0.0095866676 0.71900004 12039861
-0.069845721 0.0095866676 0.71900004 12039863
-0.17256001 0.019173335 0.71900004 12104883
-0.16799492 0.018716827 0.71900004 12236215
-0.15393448 0.01876248 0.71899998 12039863
-0.14516369 0.018326733 0.71806669 12105146
-0.13491148 0.017774059 0.71785712 12039610
-0.12520245 0.01784762 0.71819043 12039610
-0.11533495 0.018023862 0.71636844 11974073
-0.10487349 0.017419366 0.71737498 12039610
-0.095373444 0.016231481 0.71700007 11974330
-0.084630057 0.017297495 0.7170741 11974331
-0.074707583 0.015601813 0.71683306 12040122
-0.067807406 0.015033554 0.71749997 10725288
-0.29102382 0.028075241 0.71900004 3888738
-0.28564358 0.027194835 0.71899992 4742000
-0.27538353 0.027729273 0.71833336 7173252
-0.26466048 0.028417621 0.71900004 15593982
-0.19393468 0.025836619 0.71880633 11776693
-0.18481392 0.025429891 0.71667314 12895436
-0.17473517 0.025363028 0.71503699 15461097
-0.16506907 0.025200581 0.71511865 14012875
-0.15485631 0.02517811 0.71511471 12236730
-0.14488153 0.024866268 0.71407682 12105146
-0.13479948 0.024913039 0.71314543 12039610
-0.12524098 0.024903353 0.71268523 12039610
-0.11482126 0.024229398 0.71284902 12039608
-0.1046645 0.025049364 0.71312511 11974074
-0.095883615 0.023859298 0.71163154 12105146
-0.084420957 0.022543753 0.71200001 12039609
-0.074998856 0.024212524 0.7137661 10263713
-0.069063812 0.020514287 0.71800005 7896188
-0.29098162 0.030556828 0.71833342 2766421
-0.28430024 0.032731704 0.71822214 3755363
-0.27477807 0.034539755 0.71489489 8949920
-0.2648046 0.034840666 0.71570301 6054795
-0.25902629 0.034051999 0.71799999 1188162
-0.19334118 0.032184444 0.7173332 8423582
-0.18530414 0.034374621 0.71191895 9278109
-0.17618567 0.03254446 0.71036845 12698311
-0.16561207 0.031679209 0.71025008 16711421
-0.15484762 0.03110477 0.71000004 13685195
-0.14808571 0.031104766 0.71000004 12367802
-0.10278096 0.031104766 0.71000004 12039867
-0.074631244 0.034141332 0.71699995 5132118
-0.27325016 0.043387357 0.71581823 1316665
-0.26670429 0.042759739 0.71572733 1252153
-0.18324761 0.040571429 0.71000004 3947342
-0.17821638 0.045623049 0.71480006 2567749
-0.083329655 0.046517178 0.71588898 5329496
-0.07912413 0.043540001 0.71416676 5460568
-0.17488667 0.051035717 0.71450007 2435629
-0.16418764 0.057333499 0.71383345 4013888
-0.15923905 0.058954291 0.71150005 4803148
-0.091369532 0.056151744 0.71333337 5395288
-0.086476721 0.054452289 0.71719426 5460822
-0.16297525 0.060007621 0.71600002 4211010
-0.15889715 0.061114289 0.71300006 4539719
-0.1471875 0.068557285 0.71171433 4145217
-0.091272376 0.062215764 0.7142728 5395288
-0.088274918 0.060518734 0.7166667 5592406
-0.14817142 0.070686989 0.7136668 4209727
-0.10202952 0.079432383 0.71900004 5592151
-0.09509366 0.073886991 0.71833342 5263954
-0.13268921 0.081915244 0.71083343 4473413
-0.12578288 0.087291434 0.71160001 4211521
-0.10384411 0.086030707 0.7152307 5460567
-0.12350952 0.091952622 0.71650004 4277063
-0.11434758 0.095810749 0.71493548 4605511
-0.10683411 0.092939228 0.71544999 5263446
-0.080537148 -0.0020828573 0.72900003 11974331
-0.074387945 -0.0019668252 0.72883338 12105404
-0.064689994 -0.0028442857 0.72805005 12039867
-0.05730468 -0.0036072389 0.72845 11908796
-0.044392385 -0.0018501589 0.72833341 5066063
-0.30132002 0.0097200004 0.72900003 4610674
-0.25341433 0.0097200004 0.72900003 12563403
-0.22244917 0.0091645718 0.72900003 11842231
-0.2152286 0.0097200014 0.72900003 11908023
-0.20460418 0.0086727384 0.72856259 12105144
-0.1947584 0.0087262578 0.72885722 12302522
-0.18480554 0.0080153216 0.727826 12236730
-0.17512019 0.0072904765 0.72729409 12039607
-0.16454713 0.0074505103 0.72741377 12039353
-0.15516432 0.0068041808 0.7269724 12039353
-0.14498946 0.006194422 0.72709537 12105145
-0.13519493 0.0055889152 0.72694021 12039865
-0.1248299 0.0064436374 0.72652274 12039609
-0.11482815 0.0062211808 0.72630966 11974074
-0.10505703 0.0051085381 0.72626418 12039610
-0.095144354 0.0048985048 0.72505385 12039610
-0.084846511 0.0053278427 0.72535294 11974074
-0.075134724 0.0046522594 0.72365457 12039866
-0.065062821 0.0049211504 0.72468966 11908539
-0.056656446 0.004830569 0.72724384 8290438
-0.31209853 0.01665853 0.72881824 3756131
-0.30491677 0.015888665 0.72842878 4544621
-0.29542264 0.015878247 0.72753853 4741746
-0.28496528 0.016606336 0.72672969 4938613
-0.27469787 0.015517369 0.72680855 5398649
-0.26513386 0.015838934 0.72719508 7962762
-0.25491059 0.015602608 0.72630435 15001577
-0.2474326 0.015331729 0.72775 7370648
-0.22302124 0.014888402 0.72868186 10331055
-0.21511605 0.015205365 0.72593898 11645106
-0.20485242 0.015161558 0.72387755 11973558
-0.19493388 0.015181398 0.72360802 12302781
-0.1848295 0.015195355 0.72296011 13487049
-0.17492323 0.014951207 0.72225535 12368057
-0.16478422 0.01480831 0.7224682 12105145
-0.15516661 0.014121909 0.72231692 12039352
-0.1448267 0.013665434 0.72191179 12039610
-0.13507615 0.013239683 0.72166663 12039610
-0.12508942 0.01312178 0.72273326 12039609
-0.11477536 0.013360119 0.7219063 11974072
-0.10509731 0.012831724 0.72088462 11974074
-0.093701907 0.012602142 0.72012514 12039611
-0.085449934 0.012597931 0.72104365 11974331
-0.077811159 0.011563538 0.72028583 12105146
-0.063013531 0.015016553 0.7235862 6644840
-0.055386666 0.012324658 0.72794443 5066835
-0.049782857 0.012445714 0.72600001 5263701
-0.30475768 0.02372214 0.7274546 2964052
-0.29515928 0.024416545 0.72276324 4084327
-0.28440863 0.022837512 0.7214483 4873333
-0.27473921 0.023720503 0.72147369 6713731
-0.26502287 0.024309272 0.72132611 13751514
-0.25501987 0.02481471 0.72373766 5067645
-0.24894907 0.022711907 0.72812504 856884
-0.22206986 0.022901591 0.72866672 4078933
-0.21479681 0.024610173 0.72497725 5988210
-0.20462039 0.024643213 0.72127092 9870503
-0.19626881 0.021950001 0.72025013 11907767
-0.18377143 0.020571429 0.72000003 15793915
-0.17897144 0.020571429 0.72000003 15857131
-0.071999997 0.027428573 0.72000003 4477523
-0.066052839 0.023864713 0.72252625 5263447
-0.059462857 0.021434285 0.72600001 5198422
-0.29387605 0.035414137 0.72668427 1645880
-0.28718066 0.03634524 0.72224998 2105928
-0.26161906 0.039826669 0.72100008 1188662
-0.2563664 0.03444897 0.7247805 1319479
-0.21235494 0.031228572 0.72866672 4211785
-0.2031738 0.033333942 0.72424001 2961729
-0.19690172 0.035832573 0.72340012 4014164
-0.071999997 0.03222857 0.72000003 5329239
-0.068845712 0.03222857 0.72000009 5263701
-0.28072 0.047708571 0.72600001 1448741
-0.27552181 0.048018165 0.72300011 1710886
-0.26390514 0.04619927 0.72300005 1187888
-0.25910899 0.043784764 0.72744995 1253683
-0.20134287 0.040268574 0.72900003 1840938
-0.19352831 0.041227877 0.728091 3619133
-0.18699381 0.045217976 0.72618747 3290673
-0.17828572 0.049371433 0.72000003 2560833
-0.080095246 0.045571432 0.72500002 5460566
-0.076205045 0.047222856 0.72670591 5526102
-0.27392259 0.052435648 0.72578579 1514018
-0.26553297 0.052771643 0.72622228 1121321
-0.1717186 0.056440949 0.72050011 3879991
-0.16800001 0.058971431 0.72000003 3355195
-0.082026429 0.055514526 0.72075015 5395287
-0.079026669 0.05142048 0.72475004 5526613
-0.17115685 0.061194927 0.72466671 3291183
-0.16636539 0.06205992 0.7240001 4143935
-0.15291429 0.069942862 0.72000003 4209729
-0.086867414 0.063278526 0.72394454 5394773
-0.15274683 0.07440865 0.72546154 4209725
-0.14703026 0.076776706 0.72582364 4078654
-0.10057144 0.078628577 0.72000003 5591895
-0.095105179 0.077647224 0.7252143 5132367
-0.14319181 0.081899635 0.7287693 4275517
-0.13587874 0.086131006 0.7254445 4013121
-0.10068545 0.085182048 0.72128576 5329235
-0.097183496 0.082355425 0.72546685 5132111
-0.12411428 0.093942858 0.72000003 3948606
-0.10285716 0.091428578 0.72000003 5133134
-0.062287148 -0.021466192 0.73900002 12105662
-0.057008572 -0.021114286 0.73900002 12105658
-0.043091021 -0.022902859 0.73828578 12039858
-0.039061431 -0.023929525 0.73900002 10920811
-0.1600343 -0.011230477 0.73700005 12105146
-0.15863049 -0.011230477 0.73700005 12105146
-0.12527812 -0.011260953 0.73900002 12105146
-0.11326253 -0.011725081 0.73866671 11974332
-0.10557143 -0.011964762 0.73900008 12039869
-0.095099688 -0.011829367 0.73783344 12039866
-0.084804632 -0.012507371 0.73815811 12105405
-0.074598946 -0.014047115 0.73732364 12040125
-0.064157225 -0.014979909 0.73716664 12105661
-0.054763664 -0.015264272 0.73680842 12105402
-0.045304716 -0.01547787 0.73686039 11448243
-0.32609841 -0.0014076191 0.73900002 4281967
-0.31108379 -0.0014076191 0.73900002 4544879
-0.30545336 -0.0014076191 0.73900002 4478573
-0.29841524 -0.0014076191 0.73900002 4544620
-0.28345412 -0.0021111115 0.73883337 4741747
-0.2741729 -0.0026588363 0.73900014 4742002
-0.26545218 -0.0028150268 0.73888904 4939126
-0.25401711 -0.0037089176 0.73827296 5398905
-0.24480438 -0.0032311822 0.73848158 8094861
-0.23572616 -0.0039070896 0.7381112 10463147
-0.22099619 -0.0021114287 0.73900002 15916757
-0.21446413 -0.0032215873 0.73770851 14079959
-0.20491503 -0.003588642 0.73629647 12170938
-0.1949494 -0.0040556733 0.73708582 12171194
-0.18467513 -0.0043713762 0.73683333 12039864
-0.17481242 -0.0051976186 0.73554546 12039610
-0.16486868 -0.0056414097 0.73577988 12039353
-0.15507481 -0.0053450456 0.73572338 12105145
-0.14503998 -0.0052222363 0.73650002 12039610
-0.13476837 -0.0051089758 0.73604256 12039611
-0.12494712 -0.0057926704 0.73543477 12039611
-0.1151956 -0.0055254903 0.73490191 11974074
-0.10500235 -0.0055198101 0.73423988 12039611
-0.095025003 -0.0055972016 0.73363268 11974074
-0.085374817 -0.0057417629 0.73323405 12039868
-0.075431712 -0.0067429603 0.73154074 12105405
-0.065695181 -0.0075341584 0.7322669 12040122
-0.053468347 -0.006571156 0.73154318 11382706
-0.045110613 -0.0059935907 0.73285377 6447977
-0.038556956 -0.0069900961 0.73340005 5198422
-0.33297437 0.0049791276 0.73825014 3557469
-0.3249369 0.0047103716 0.73599988 4150634
-0.31511217 0.0048948312 0.73567843 4413294
-0.30490074 0.0048347446 0.73485196 4544624
-0.29474127 0.0050724763 0.73453325 4675954
-0.28520459 0.0048865099 0.73601806 4873077
-0.27468422 0.0047971606 0.73419273 4873332
-0.26490617 0.0049730917 0.73409104 5399162
-0.25519764 0.0047124177 0.73386788 7831952
-0.24505666 0.0047826939 0.73315501 12501962
-0.23509139 0.0050911019 0.73515618 4408928
-0.2246068 0.0049968432 0.73434216 10920358
-0.21497716 0.0044509829 0.73338294 12236477
-0.20488989 0.0033434767 0.73175025 12170681
-0.19517069 0.0033370103 0.73213983 12236730
-0.18551806 0.0027867286 0.73212934 12170937
-0.1749986 0.0016710096 0.73148024 12039352
-0.16541772 0.0020650248 0.73148292 11973817
-0.15438838 0.0013228573 0.73119998 11974072
-0.14540437 0.00079564634 0.73100007 12105145
-0.1345612 0.00017404761 0.731125 12039610
-0.12567277 0.00083542865 0.73146671 12039866
-0.11559049 0.00069619052 0.73114288 11974075
-0.10721334 0 0.73100007 12039866
-0.093289524 0 0.73100007 11974074
-0.087487936 0.00046412699 0.73100007 12105147
-0.051621117 0.0049200836 0.73247826 5131863
-0.047203816 0.0027974232 0.73400009 5263188
-0.33172891 0.012668572 0.73900002 1975097
-0.32553855 0.014300951 0.73635483 2371399
-0.31585422 0.01409762 0.7321074 3755108
-0.30632377 0.011371111 0.73100007 4544368
-0.29448858 0.012113716 0.73100001 4742003
-0.28572735 0.012071365 0.73126668 4938870
-0.2747632 0.011139048 0.73100007 5201270
-0.2652486 0.011487143 0.73100001 5990265
-0.25759047 0.011139048 0.73100007 9734312
-0.24261513 0.015851216 0.73337162 1448508
-0.23505706 0.015184036 0.73402381 2370369
-0.22782469 0.014901145 0.73110002 8752031
-0.061264765 0.019493334 0.73100001 5329748
-0.056251287 0.016565153 0.73155582 5198164
-0.31430933 0.023395715 0.73337507 1909302
-0.30841237 0.026455238 0.73100001 1908281
-0.25109273 0.028775871 0.73100007 1253683
-0.24690323 0.024754176 0.7348572 1121579
-0.23123525 0.022073809 0.73575002 1381938
-0.22553773 0.02378107 0.73175007 3028803
-0.21999618 0.028543808 0.73100001 3750720
-0.06498763 0.02892492 0.73775005 5395290
-0.056767352 0.02151184 0.73200005 5329751
-0.29657716 0.038290478 0.73100001 1251369
-0.25217822 0.035473034 0.73272431 1253682
-0.24880974 0.032470651 0.73536372 1056300
-0.22138858 0.030632382 0.73100001 3158578
-0.21481539 0.035093114 0.73417658 3618876
-0.20719463 0.036607184 0.73269236 2891300
-0.071783625 0.03798705 0.73320001 5395027
-0.066088922 0.035320826 0.73631257 5460567
-0.25609189 0.044933002 0.73376489 1122097
-0.21325429 0.040820953 0.73900002 3290418
-0.20262283 0.044315398 0.73450005 1840156
-0.19605659 0.04584286 0.73340636 1710626
-0.18936381 0.048733335 0.73100001 1776170
-0.07302241 0.04500236 0.73390502 5394774
-0.068568096 0.042725876 0.7334168 5262934
-0.2738511 0.056443498 0.73166668 1317407
-0.26406896 0.056298349 0.73411125 1055787
-0.25775889 0.05214835 0.73641181 1187118
-0.20128952 0.050674286 0.73900002 1511443
-0.19259013 0.052743215 0.73600012 854800
-0.1854962 0.053396266 0.73221439 986648
-0.081189051 0.057842389 0.73175001 5197907
-0.077687837 0.054389633 0.73638898 5131858
-0.27126861 0.06028191 0.73600006 1251366
-0.26690289 0.060639367 0.73750007 989739
-0.17295578 0.066360593 0.73638469 3553328
-0.16577572 0.067315236 0.73320013 4210495
-0.084235795 0.064872578 0.73452646 5000271
-0.079691432 0.060118094 0.73400003 5066321
-0.17172953 0.070380956 0.73900002 3619639
-0.1654471 0.071863271 0.73564297 3815996
-0.1555869 0.07648357 0.73175001 3947838
-0.091785476 0.074717619 0.73149997 4935244
-0.088545404 0.071300961 0.73400009 4934988
-0.1462 0.082150482 0.73100007 4078652
-0.054814167 -0.033242818 0.74613053 8418144
-0.047031295 -0.032536741 0.745 4799298
-0.1826061 -0.021650668 0.74779999 12105399
-0.17534076 -0.021793142 0.74780011 12039607
-0.16557336 -0.022076666 0.74775004 12105143
-0.15625392 -0.021935618 0.74780011 11974075
-0.13155302 -0.022796189 0.74800003 12039866
-0.12431049 -0.021371428 0.74800003 12039868
-0.11513043 -0.022524148 0.74729413 12039867
-0.1049381 -0.023296563 0.74642295 12105147
-0.095251128 -0.023685206 0.74599999 12039867
-0.085007444 -0.023977835 0.74569714 12105660
-0.074883454 -0.024335125 0.74527788 12105659
-0.065450288 -0.02587992 0.7444666 12105661
-0.055092651 -0.025657061 0.7428298 12040121
-0.046732135 -0.026053976 0.74193335 10985872
-0.036394287 -0.021555955 0.74212503 9540732
-0.36046475 -0.011398096 0.74800003 4085094
-0.35416678 -0.012665567 0.74752635 4216174
-0.3447924 -0.011398097 0.74800009 4281710
-0.33442289 -0.012961145 0.74775004 4216431
-0.32472083 -0.012106122 0.7477144 4281968
-0.31572723 -0.011825523 0.74800009 4150895
-0.30438465 -0.012430224 0.74720007 4348015
-0.29472771 -0.012785143 0.74569994 4544626
-0.28463748 -0.013823694 0.74659371 4544883
-0.27544379 -0.013407917 0.74688458 4610160
-0.26452145 -0.013192642 0.74681824 4807539
-0.25480825 -0.013618458 0.74562067 4873332
-0.2454322 -0.013233774 0.74630767 5070453
-0.23480731 -0.014082794 0.74666661 5991042
-0.22508381 -0.014981261 0.74637204 5662843
-0.2155557 -0.014217308 0.74620003 6712434
-0.20422268 -0.014392806 0.745 12170937
-0.19523974 -0.015426894 0.74539536 12039354
-0.18497114 -0.01558834 0.74373472 12105144
-0.17509037 -0.015601333 0.74432021 12039609
-0.16510217 -0.015641859 0.74319565 12039354
-0.15505743 -0.015677013 0.74390197 12039609
-0.14491853 -0.015011477 0.74347627 11974073
-0.13514066 -0.015483499 0.74412245 12039610
-0.12496261 -0.016308848 0.74411887 12039611
-0.11528949 -0.016143672 0.74288118 12039611
-0.10478671 -0.01689212 0.74230558 12039866
-0.094786167 -0.016624667 0.74184215 12105402
-0.084820449 -0.017428318 0.74176687 12039866
-0.074894406 -0.018284166 0.74187499 12040124
-0.067559734 -0.018353743 0.74114293 12171709
-0.054266669 -0.019733334 0.74000001 12105659
-0.042480003 -0.015336191 0.74350011 8881297
-0.036143437 -0.016605133 0.74574983 5921115
-0.36046475 -0.0085485717 0.74800003 3228508
-0.35441753 -0.0061761406 0.74686831 3491677
-0.34486085 -0.0060286564 0.74486685 4216171
-0.33495304 -0.0056446418 0.74356258 4347502
-0.32491302 -0.0059756031 0.74372339 4216431
-0.31529558 -0.0056124227 0.74345666 4347757
-0.30469984 -0.0063679377 0.74230969 4347759
-0.29473084 -0.0058404859 0.74231923 4544883
-0.28501889 -0.0068050972 0.74216223 4544883
-0.27509817 -0.0073612481 0.74182755 4676210
-0.26431119 -0.0072732768 0.74158823 4873589
-0.25522071 -0.0077378047 0.74134779 5070453
-0.24550407 -0.0080445539 0.74130416 5530234
-0.23340596 -0.0071651023 0.74153572 6583173
-0.22525509 -0.0060128998 0.7423864 5132128
-0.21543024 -0.0080726985 0.74224997 12433079
-0.20453899 -0.0084647629 0.74057138 12105402
-0.19500725 -0.0090316199 0.74079996 12105402
-0.18548396 -0.0091117956 0.74030769 12039609
-0.17372382 -0.009866667 0.74000001 12039353
-0.15222858 -0.0098666679 0.74000001 11974074
-0.14518096 -0.009866667 0.74000001 12039611
-0.13601905 -0.009866667 0.74000001 12039611
-0.041860003 -0.008514286 0.745 4935248
-0.039893333 -0.0085485708 0.74800003 5329496
-0.35025716 0.00071238098 0.74750006 2697551
-0.34396705 0.0039522978 0.74486959 2568778
-0.33795816 0.0032178834 0.74099994 3491676
-0.31009525 0 0.74000001 4413554
-0.23116191 0 0.74000001 1901894
-0.22645859 0.00035238094 0.74074996 6250870
-0.34336767 0.011398096 0.74800003 1843498
-0.33509684 0.01474577 0.74341172 1711659
-0.32495931 0.019074285 0.74175006 1711926
-0.23961905 0.019733334 0.74000001 792356
-0.32441229 0.02329687 0.74442858 1711657
-0.3198438 0.025474286 0.74300003 1645866
-0.24409746 0.0257707 0.74357688 989734
-0.23735684 0.022924764 0.74433327 724508
-0.25060311 0.037036907 0.74437505 1187117
-0.24840707 0.035050996 0.74523079 1055785
-0.21354285 0.039466668 0.74000001 3552315
-0.06334921 0.033557255 0.74088889 5394775
-0.25285792 0.045482371 0.74403036 1055789
-0.2492343 0.042345908 0.74600005 989994
-0.21351428 0.044058215 0.74606252 3355441
-0.20796297 0.044056084 0.74611115 2299941
-0.071323812 0.049433332 0.74150002 4934991
-0.26159671 0.05819286 0.74287504 1121581
-0.2568517 0.055078361 0.74577272 1055531
-0.200976 0.052860577 0.74200004 1775380
-0.19782256 0.053931281 0.74183339 1380879
-0.074063249 0.055054706 0.74263996 4672586
-0.069533341 0.052504767 0.74500006 4213827
-0.27196667 0.064209528 0.74250007 1514015
-0.26469007 0.06444034 0.74352509 1120808
-0.25931963 0.06283886 0.74640006 1055528
-0.17666668 0.067840002 0.74200004 3159084
-0.080342859 0.063428566 0.74000001 4737612
-0.078440003 0.060773335 0.74200004 4673098
-0.17337143 0.070476189 0.74000001 3290673
-0.12705524 -0.040426668 0.75800002 12039610
-0.10251049 -0.04166422 0.75800002 12105405
-0.096157722 -0.041726094 0.75799996 12105405
-0.082709663 -0.041251704 0.75800002 12171192
-0.075091362 -0.042297222 0.754731 10261117
-0.067966856 -0.040893715 0.75599998 7559756
-0.28154284 -0.03032 0.75800002 4348019
-0.27432382 -0.03032 0.75800002 4807023
-0.26421711 -0.031041903 0.75799996 4676211
-0.25493002 -0.030490477 0.75774997 4742004
-0.24544767 -0.031041911 0.75800008 4873845
-0.23438428 -0.032070138 0.75745469 4873588
-0.22548513 -0.03248078 0.75722229 4939384
-0.21469982 -0.031650856 0.75700021 4939383
-0.20525634 -0.031590372 0.75747383 4345964
-0.19458435 -0.033078339 0.75706249 9275796
-0.18497908 -0.033207797 0.75697064 11973816
-0.1755936 -0.032569259 0.75628579 12039354
-0.16499709 -0.032962345 0.75608563 12039611
-0.15523453 -0.033077233 0.75709683 12039611
-0.14465275 -0.033918526 0.75602514 12105403
-0.13506307 -0.034425437 0.75485414 12039611
-0.12536445 -0.034512777 0.75614583 12039612
-0.11521596 -0.033530448 0.75512826 12039610
-0.1046487 -0.034153525 0.75466675 12105404
-0.094794475 -0.034478489 0.7540614 12105404
-0.084793344 -0.034499705 0.75451034 12105660
-0.07469362 -0.034770239 0.75215584 12105659
-0.065001227 -0.034948051 0.75138903 11315100
-0.05814667 -0.035033017 0.75066674 8352861
-0.38362056 -0.023147736 0.75760007 4344148
-0.3751941 -0.023069648 0.75687504 4216173
-0.36460689 -0.022352993 0.75599998 4216173
-0.35538849 -0.023980157 0.7570231 4281454
-0.34518829 -0.023063699 0.75667632 4281708
-0.33489349 -0.023505159 0.75658965 4281709
-0.32576975 -0.022525296 0.75651854 4347245
-0.31480506 -0.023828324 0.75557911 4281966
-0.30544662 -0.023434235 0.75510532 4216430
-0.2947717 -0.023630658 0.75446361 4347757
-0.2847701 -0.024251478 0.75449997 4479087
-0.27486843 -0.024315536 0.7543264 4610417
-0.26513419 -0.02446387 0.75532645 4676211
-0.25485733 -0.024415033 0.7538045 4742005
-0.24492672 -0.0244352 0.75356019 5004916
-0.2346451 -0.02439351 0.75312245 5005430
-0.22469254 -0.024487067 0.75306684 5399161
-0.21494465 -0.024468012 0.7527293 4873328
-0.205157 -0.024397086 0.75320411 7107195
-0.19477995 -0.024670919 0.75265902 12039608
-0.18538211 -0.025753617 0.75223523 12039353
-0.17486541 -0.025904654 0.75176483 12039610
-0.16438344 -0.026314549 0.75158626 12039609
-0.15412854 -0.025609743 0.75159997 12039354
-0.14461717 -0.02450213 0.75093627 12039610
-0.13477255 -0.025151752 0.75066686 12105403
-0.12505949 -0.025504654 0.75097162 12039866
-0.11497511 -0.02662784 0.75092316 12105404
-0.10462909 -0.027729273 0.75040007 12105406
-0.094714291 -0.028000001 0.75000006 12040123
-0.085880771 -0.028293332 0.75020003 12105917
-0.07571429 -0.028750001 0.75000006 12105661
-0.38284281 -0.01639528 0.75628603 3552314
-0.37495813 -0.01533251 0.75470012 2899028
-0.36538994 -0.014552565 0.75112224 3821156
-0.35514033 -0.016708009 0.75170374 4346989
-0.34467331 -0.015656641 0.75111789 4347245
-0.33473027 -0.017242208 0.75099999 4281709
-0.32520065 -0.016362987 0.75123352 4347502
-0.31458893 -0.016004289 0.75093752 4281710
-0.30516505 -0.016716573 0.75132 4347758
-0.29457948 -0.017219242 0.75020003 4348016
-0.28529561 -0.018152764 0.75040001 4544880
-0.27372333 -0.017225867 0.75031585 4479345
-0.2651664 -0.017409526 0.75058824 4676467
-0.25460368 -0.01792733 0.75061542 4807540
-0.24456978 -0.01752143 0.750875 4939382
-0.23614287 -0.017857146 0.75000006 5399163
-0.22857144 -0.018571431 0.75000006 5925505
-0.21357146 -0.017857146 0.75000006 4475739
-0.20809525 -0.01809524 0.75000012 10592415
-0.034444448 -0.0115873 0.75000006 5131855
-0.030000001 -0.011428572 0.75000012 4867652
-0.36522812 -0.0053331819 0.75311995 2238526
-0.35904956 -0.0028590478 0.75100005 2435138
-0.041253015 -0.002397778 0.75550008 5329495
-0.035935167 -0.0054894458 0.75329179 5198160
-0.36288002 0 0.75600004 2238001
-0.35526487 0.0044557913 0.75374204 2171955
-0.34760681 0.0071532279 0.75100005 2040878
-0.043806843 0.0036443693 0.75623542 5198164
-0.038434289 0.00048126988 0.75666666 5395284
-0.35482225 0.010887831 0.75655556 1712168
-0.34459269 0.0137725 0.75125003 1646118
-0.33857146 0.016428573 0.75000006 1514789
-0.054070476 0.018022858 0.75700003 5657431
-0.33318827 0.025245938 0.75341183 1711137
-0.32828432 0.027062859 0.75262511 1580067
-0.24179499 0.027620088 0.75236368 857631
-0.23541872 0.027455 0.75362509 1251105
-0.060200002 0.027949523 0.75250006 5460821
-0.054268263 0.026206575 0.75625807 5132111
-0.049089525 0.023100954 0.75800002 5197645
-0.24456544 0.034801755 0.75443149 989478
-0.23613547 0.032825559 0.7568078 987928
-0.060981154 0.034582477 0.75330013 5000529
-0.056647878 0.033165026 0.75559109 4672330
-0.25052384 0.047532383 0.75050002 924456
-0.2475647 0.0436817 0.75457156 989736
-0.21256571 0.047954287 0.75150001 3092282
-0.20845258 0.047753148 0.75060004 2433568
-0.25338709 0.054697301 0.75158346 923943
-0.24910451 0.051546123 0.75471431 988708
-0.21168002 0.0504 0.75600004 2894379
-0.25764847 0.061247356 0.7502858 988708
-0.11264 -0.062171429 0.76800001 9994601
-0.10971429 -0.061440002 0.76800001 8547170
-0.17408 -0.051200002 0.76800001 11710653
-0.16496927 -0.05109524 0.76642859 11973818
-0.15810001 -0.051000003 0.76500005 11974074
-0.14043428 -0.051200002 0.76800001 12170938
-0.13533178 -0.051979575 0.76772738 12105145
-0.12141714 -0.051200002 0.76800001 12170943
-0.11339697 -0.054592732 0.76614821 12105657
-0.1055619 -0.054579332 0.76535898 11907499
-0.095780112 -0.052500214 0.76444465 10787714
-0.34157714 -0.040959999 0.76800001 4281963
-0.33792001 -0.040959999 0.76800001 4150894
-0.30414161 -0.040942222 0.7676667 4216430
-0.29549715 -0.041569531 0.76800007 4347503
-0.28415999 -0.041680574 0.76780003 4413551
-0.27460825 -0.043272372 0.76670378 4479088
-0.26518354 -0.041849747 0.76694113 4610672
-0.25471586 -0.042332489 0.76633346 4742004
-0.24469699 -0.043069147 0.76586956 4742002
-0.23522049 -0.043525144 0.76535302 4807797
-0.22463462 -0.043814521 0.76527017 4808054
-0.21481904 -0.044522472 0.76664847 4939125
-0.20500545 -0.044505641 0.76570719 5004917
-0.19505093 -0.044027969 0.76571047 4214890
-0.18479645 -0.043614913 0.7657333 10525343
-0.17476554 -0.044969011 0.76446944 11973816
-0.16485357 -0.045252107 0.7641111 11973818
-0.15508427 -0.045114733 0.76345837 12039354
-0.14516458 -0.045038648 0.76370859 12039610
-0.13506001 -0.045160554 0.76312494 12039610
-0.12477293 -0.045389835 0.76352286 12039611
-0.11484866 -0.045072541 0.7632246 12105403
-0.1050761 -0.045770556 0.76184618 12105660
-0.094528444 -0.045780618 0.7620002 12105657
-0.08628954 -0.043983657 0.76088476 12039857
-0.37346491 -0.031861089 0.76271445 4412264
-0.36458695 -0.033886131 0.76411116 4281453
-0.35504547 -0.034583014 0.76446807 4346989
-0.34475693 -0.03474576 0.76495469 4347245
-0.33502817 -0.034837473 0.76467383 4281710
-0.32527652 -0.034829069 0.76519567 4216174
-0.31483412 -0.034702528 0.76445645 4216431
-0.30466557 -0.034825165 0.76368093 4281967
-0.29506466 -0.035049047 0.76452082 4347502
-0.28524175 -0.035032257 0.76395452 4282480
-0.27531755 -0.034842614 0.76271111 4610418
-0.26523337 -0.035891045 0.76326823 4610675
-0.25518405 -0.035809208 0.76288879 4742005
-0.24511665 -0.036196306 0.76185304 4807794
-0.23554453 -0.037135314 0.76079166 4873334
-0.22404437 -0.037230637 0.76029176 4939126
-0.21506512 -0.03694744 0.76118529 4939382
-0.20484161 -0.036710408 0.76073354 4873587
-0.19552504 -0.038091976 0.76078582 4409695
-0.18557362 -0.038419735 0.76114291 11908533
-0.17495058 -0.03782808 0.760737 11973816
-0.16500729 -0.037823532 0.7602942 12039609
-0.15432549 -0.038016073 0.76031256 12039608
-0.14785114 -0.038413018 0.76100004 12105402
-0.12160001 -0.038361907 0.76000005 11908539
-0.11383551 -0.03855931 0.76000017 12105146
-0.10784763 -0.039085716 0.76000005 12236737
-0.38120636 -0.027022224 0.76000011 4345695
-0.37409002 -0.027780956 0.76012516 4216173
-0.36601815 -0.027045988 0.76066661 4347246
-0.35266453 -0.028544219 0.76014298 4281708
-0.3445659 -0.028231299 0.76007158 4216172
-0.33520427 -0.028630691 0.76000011 4281710
-0.32465893 -0.027207868 0.76047832 4281709
-0.31508574 -0.028670479 0.76020002 4347502
-0.30499417 -0.028432904 0.76018196 4347504
-0.29585713 -0.028771434 0.76000011 4413036
-0.28807619 -0.028952383 0.76000005 4413553
-0.043711979 0.0061140861 0.76226336 5197650
-0.038416825 0.0057117464 0.76591676 5066832
-0.051639482 0.016110651 0.76272732 5329241
-0.046370402 0.013763973 0.76628566 5197650
-0.037950478 0.010217778 0.76633334 4803654
-0.33790001 0.029066667 0.76300001 2170142
-0.052957386 0.021039048 0.76175004 5066834
-0.049227934 0.020958733 0.7676667 5001040
-0.33862668 0.030520001 0.76300001 2499869
-0.24030478 0.039085716 0.76000005 660510
-0.23497643 0.037182856 0.76195246 724759
-0.24422085 0.043274697 0.76092869 857892
-0.23952381 0.041213337 0.76366675 593432
-0.14170381 -0.071222864 0.77900004 12105148
-0.13700508 -0.071222864 0.77900004 12171174
-0.27302098 -0.061472118 0.77900004 4610930
-0.26708573 -0.061330795 0.77900004 4676723
-0.25570986 -0.061165929 0.7790001 4610929
-0.24581778 -0.060836192 0.77900004 4676467
-0.23889334 -0.060836192 0.77900004 4807796
-0.22220051 -0.063061908 0.77900004 4873848
-0.21577464 -0.063947402 0.77899987 4874103
-0.20502095 -0.062512957 0.77770013 5201520
-0.19609769 -0.061404675 0.77090913 5725795
-0.17020001 -0.060679998 0.77700001 12174773
-0.16449119 -0.06411048 0.7777881 11645106
-0.15549806 -0.062699109 0.77780002 11973817
-0.14505453 -0.063488923 0.77856255 12039611
-0.1348926 -0.063940831 0.77747065 12105403
-0.12526438 -0.063882947 0.77682865 11841963
-0.11776545 -0.062830746 0.77350014 11380371
-0.36093739 -0.052010719 0.77462506 4673110
-0.3546209 -0.053592931 0.77642101 4083808
-0.34559467 -0.051848389 0.77770013 4150379
-0.33498219 -0.051770657 0.77754563 4216172
-0.32467937 -0.052654535 0.77775002 4281965
-0.31461439 -0.053196553 0.77706254 4282222
-0.30513322 -0.052866992 0.77740008 4413296
-0.29482335 -0.053863071 0.77727026 4413553
-0.28467846 -0.054141957 0.77600014 4413553
-0.2752144 -0.05441647 0.77652389 4479345
-0.26506636 -0.054912146 0.77537507 4676467
-0.25478429 -0.055298071 0.77568913 4676466
-0.24532248 -0.055027805 0.77587175 4676467
-0.23523907 -0.055371702 0.77511925 4676467
-0.22518474 -0.055291679 0.77476925 4808054
-0.2149428 -0.055427615 0.77392882 4808052
-0.20521544 -0.055022065 0.77308333 4873588
-0.1956047 -0.055006098 0.77212477 5004916
-0.18574336 -0.053654321 0.772111 5397860
-0.17464145 -0.05486716 0.77174187 11052446
-0.16489185 -0.055948395 0.77228141 11973560
-0.15503563 -0.055375338 0.77262497 11973818
-0.1453986 -0.05535328 0.77380002 12039610
-0.13475055 -0.056064241 0.77241385 12039610
-0.12519358 -0.055340003 0.77212524 12039867
-0.11763444 -0.056276638 0.77123088 12105660
-0.10340001 -0.0572 0.77000004 10129779
-0.37056002 -0.041908573 0.77200001 4542042
-0.36427537 -0.044750109 0.77305567 4149344
-0.35505295 -0.044827819 0.77286839 4084586
-0.34532338 -0.045149967 0.77242112 4215915
-0.33470193 -0.045185458 0.77217966 4216173
-0.32516786 -0.044842493 0.77210259 4347503
-0.31493327 -0.044709478 0.77133334 4347502
-0.30521065 -0.045195263 0.771743 4347504
-0.29484311 -0.045943256 0.77117264 4347760
-0.28562522 -0.045892544 0.77117246 4348015
-0.27464589 -0.047684822 0.77106678 4413552
-0.26489949 -0.046726629 0.7710371 4610674
-0.25534964 -0.04775954 0.77106905 4676214
-0.24575943 -0.047614235 0.77123541 4676466
-0.23506334 -0.048922859 0.77100009 4676724
-0.22433291 -0.049086887 0.77015394 4873591
-0.21539049 -0.049657151 0.7700001 4808051
-0.20554288 -0.049657151 0.7700001 5004915
-0.19470003 -0.049255561 0.7700001 4873587
-0.18594034 -0.048710614 0.77026683 5263981
-0.37056002 -0.039702855 0.77200001 4346467
-0.36638424 -0.039195649 0.77028579 4215913
-0.35273334 -0.0396 0.77000004 4346992
-0.34833336 -0.0396 0.77000004 4346990
-0.33366668 -0.0396 0.77000004 4281708
-0.32340002 -0.0396 0.77000004 4216431
-0.31753334 -0.0396 0.77000004 4150897
-0.034556191 -0.0014704762 0.77200001 4935492
-0.034792472 0.0032215875 0.77180964 5000778
-0.042826667 0.015986668 0.77000004 5001296
-0.038359284 0.013032143 0.77087504 4541508
-0.24120858 -0.082657143 0.78900003 5004146
-0.23895429 -0.082657143 0.78900003 5201515
-0.34672004 -0.070544764 0.78800005 4672074
-0.32236284 -0.070634283 0.78900003 4281706
-0.31785429 -0.070634283 0.78900003 4478576
-0.30357715 -0.070634283 0.78900003 4413559
-0.28468409 -0.070848979 0.78900009 4610416
-0.27322072 -0.072258793 0.78813326 4610675
-0.26510522 -0.072945528 0.78748137 4544882
-0.25483224 -0.071378253 0.78891677 4610930
-0.24465281 -0.074058607 0.78685284 4676468
-0.23536326 -0.074428029 0.78669041 4873846
-0.22589934 -0.073609106 0.7852143 5464182
-0.21821474 -0.073192731 0.78127283 5528422
-0.16236661 -0.073480792 0.78629422 9143940
-0.15448418 -0.074359648 0.7872436 11974329
-0.14528501 -0.074077018 0.78608817 11973288
-0.13542858 -0.072193272 0.78357911 10919555
-0.12855428 -0.070425719 0.78250003 9338977
-0.35245115 -0.063313335 0.78516674 4410967
-0.34506759 -0.064595275 0.78600007 3952738
-0.33537048 -0.064081088 0.78690618 4215916
-0.32455882 -0.065128356 0.78718919 4347245
-0.31500581 -0.064919554 0.78608829 4413296
-0.30527627 -0.065155715 0.78628558 4347759
-0.2946808 -0.064886279 0.78424329 4479345
-0.28491765 -0.06501054 0.78452373 4479347
-0.27500349 -0.065732308 0.78423327 4676208
-0.26479188 -0.065214492 0.78262883 4610674
-0.25491861 -0.065859787 0.78422862 4676468
-0.24486949 -0.065115854 0.78317654 4676466
-0.2351241 -0.064775482 0.7824102 4742261
-0.22621441 -0.065377086 0.7818622 4808056
-0.21466024 -0.067342848 0.78024995 5268085
-0.208 -0.065371424 0.78000009 5529707
-0.16268572 -0.068342857 0.78000003 12236985
-0.15466452 -0.067386903 0.78075004 11974075
-0.14547473 -0.068265833 0.78288889 12039867
-0.13541029 -0.068448007 0.78120005 12171195
-0.12851429 -0.068342857 0.78000003 12367508
-0.35178453 -0.058561638 0.78257149 3821665
-0.3448734 -0.057261806 0.78192598 4084586
-0.33515063 -0.05734919 0.7816 4216429
-0.32529455 -0.057781424 0.78066653 4347501
-0.31533033 -0.058369532 0.78039998 4151149
-0.3053439 -0.058408078 0.78152943 4282222
-0.29621956 -0.058909524 0.78050005 4479090
-0.28661844 -0.059206352 0.7803334 4479346
-0.27456003 -0.059131432 0.78000003 4545395
-0.26144001 -0.097280011 0.79800004 5067856
-0.25572592 -0.094910011 0.79535007 5198934
-0.24935238 -0.09136191 0.79500002 5133397
-0.33282742 -0.081687383 0.79787499 4214877
-0.32680005 -0.080994293 0.79800004 4215915
-0.31436682 -0.080979869 0.79785717 4282223
-0.3046976 -0.081316352 0.79738468 4413295
-0.29478282 -0.082293332 0.79773694 4544882
-0.28503442 -0.083037607 0.79581499 4544625
-0.27531236 -0.082253769 0.79569232 4675955
-0.26507381 -0.083246291 0.79710364 4610676
-0.25495952 -0.084725454 0.79650027 4610670
-0.24608982 -0.084806591 0.79392314 4938352
-0.23880666 -0.081359997 0.79100001 5136239
-0.16171557 -0.081862226 0.79100007 5854808
-0.15518665 -0.082113326 0.79100007 8418143
-0.14916 -0.081359997 0.79100001 8677985
-0.34366691 -0.073081374 0.792889 4410198
-0.33494815 -0.074855715 0.79389995 4084326
-0.32507166 -0.075361229 0.7943058 4281710
-0.31499654 -0.074844867 0.79397148 4282223
-0.30491823 -0.075072668 0.79269242 4282223
-0.29514706 -0.074649401 0.79343897 4479089
-0.28456447 -0.075443447 0.79213333 4544623
-0.27606875 -0.076087996 0.79138112 4545137
-0.26444688 -0.07711111 0.79273343 4610419
-0.25527307 -0.076158464 0.7914446 4545138
-0.24577498 -0.079099998 0.79099995 4610933
-0.16196667 -0.079099998 0.79100001 5064786
-0.1571238 -0.079422861 0.79100001 9802368
-0.34222955 -0.068973809 0.79149997 3887459
-0.33463067 -0.068704002 0.79099995 4215661
-0.32920668 -0.069306672 0.79100001 4412783
-0.31564665 -0.069306672 0.79100001 4609908
-0.28352678 -0.11149544 0.80800003 5658458
-0.28190225 -0.10080763 0.80800003 4610418
-0.27421525 -0.10224 0.80457145 4937318
-0.26596525 -0.10123761 0.80075008 5198423
-0.32257825 -0.091669656 0.80400002 4346467
-0.31433004 -0.09292981 0.8071999 4216430
-0.30458274 -0.093785204 0.80571437 4413296
-0.29483888 -0.094172627 0.80502588 4413554
-0.28501317 -0.094244346 0.80515796 4544883
-0.27446571 -0.095027417 0.80250007 4545138
-0.26516828 -0.094844058 0.80053329 4675947
-0.25691429 -0.092038088 0.80000001 4938339
-0.33066666 -0.083809525 0.80000001 4215137
-0.32460037 -0.085429378 0.80129397 4215658
-0.31526983 -0.085471757 0.80254537 4347503
-0.30449826 -0.086185843 0.80052179 4348016
-0.29540569 -0.086700104 0.80011123 4413553
-0.28439829 -0.087826841 0.80000013 4545138
-0.27443931 -0.087762415 0.80021065 4610673
-0.26533332 -0.088857152 0.80000013 4676211
-0.2582857 -0.089142859 0.80000001 4610671
-0.31123811 -0.11048953 0.81700003 5001563
-0.303826 -0.11300427 0.81715995 4674406
-0.29628029 -0.1123955 0.81812513 4610154
-0.28993905 -0.11163428 0.81400001 5068901
-0.31355181 -0.10363124 0.81292331 4477793
-0.30484509 -0.10446126 0.81371045 4281965
-0.29517496 -0.10459439 0.81347209 4479344
-0.28543618 -0.10573033 0.81197232 4872298
-0.2789385 -0.10720055 0.81228578 5264733
-0.3209143 -0.097971439 0.81000006 4411230
-0.31566867 -0.097611457 0.81000018 4150377
-0.30471432 -0.098742865 0.81000006 4413294
-0.30025142 -0.11728572 0.82100004 5199970
-0.29661191 -0.11661094 0.82175004 5331293
